-3.53928876 14.09956932 2.08612752
-3.72523165 14.01431942 2.3666966
-3.71206665 13.87111855 2.62885809
-3.9171524 14.06304455 2.33543801
-3.94123864 13.96279907 2.58127737
-3.69458055 14.11837292 2.06846952
-3.85520959 14.13175201 2.05014849
-4.20537996 14.01247311 2.4316318
-3.74949074 13.51432133 0.63386893
-3.76111746 13.81565285 1.08815801
-3.61194921 13.52207375 0.65939856
-3.49682879 13.53550243 0.69987011
-3.61337924 13.81925297 1.1066215
-3.48065591 13.82506752 1.13897157
-3.3855679 13.54681301 0.73320204
-3.79977679 14.0353775 1.59731865
-3.6491046 14.03568935 1.61237252
-3.50738931 14.03311443 1.63162351
-3.36488771 14.01618099 1.63042998
-3.3520031 13.82343388 1.16197968
-5.45859528 6.71972656 1.60407841
-5.49956703 6.44112492 1.48338389
-5.42134476 7.16315842 1.73375046
-5.74877501 6.77557182 1.59784424
-5.7436533 6.49458599 1.48182213
-5.9638381 6.82154036 1.57596946
-5.93964386 6.54043293 1.46349919
-5.71588326 7.21107149 1.72567904
-5.92839766 7.25245476 1.7009536
-6.08273888 6.5974369 1.32432723
-5.26028061 9.66629124 2.26154208
-5.28566933 9.46825409 2.19220448
-5.24734974 9.85395145 2.3474474
-5.48865986 9.68124962 2.27879691
-5.48927784 9.4732914 2.20667171
-5.76218891 9.73037243 2.20658231
-5.72676611 9.50093651 2.15287828
-5.49027681 9.88137245 2.3672564
-5.78296757 9.9586277 2.27266169
-5.97227287 9.49429417 1.92749929
-5.24993229 10.03235817 2.38724041
-5.24537563 10.1932869 2.43952727
-5.49913788 10.07025146 2.41381788
-5.79479933 10.17827129 2.28872108
-5.48960066 10.22988987 2.47692943
-5.77234411 10.37639999 2.32207513
-5.37076378 11.24620247 3.65900517
-5.32141113 11.04846859 3.34874892
-5.12224817 11.14005756 3.56944966
-5.1393795 11.18337822 3.85212302
-5.59446478 11.46034813 3.70125604
-5.54515219 11.15576363 3.37923884
-5.77524185 11.92043686 3.49213815
-5.73678589 11.50655746 3.18708873
-5.80238104 12.28350163 3.80627608
-5.85583687 6.65340996 0.27362436
-5.93121862 6.54302073 0.3928363
-5.77626324 6.86283493 0.1595917
-5.67337799 6.59808922 0.2673586
-5.70151329 6.46270132 0.38144651
-5.48293734 6.56826448 0.28204963
-5.45624208 6.4199214 0.40047386
-5.51220942 6.82165909 0.16425183
-5.2474308 10.76987934 3.03597403
-5.19508314 10.50001717 2.76071024
-5.01931047 10.7937088 2.97116423
-5.07832766 11.01817703 3.28817058
-5.46127796 10.8049593 3.07942462
-5.40433741 10.5023241 2.81898046
-5.6656971 11.09579849 2.8913722
-5.62813807 10.75227356 2.63301301
-5.21088219 10.32850075 2.56292224
-4.97935629 10.34913063 2.49223042
-4.9759469 10.54467583 2.68402529
-5.43597364 10.34227753 2.61505485
-5.69026375 10.54010391 2.44004011
-5.6012969 8.03428078 0.34583008
-5.60892677 8.01981831 0.38052884
-5.57198715 7.97134972 0.26349139
-5.71830225 8.001441 0.25452274
-5.73596954 8.06173897 0.33625835
-5.73815823 8.03945923 0.36952108
-5.87046766 8.06713009 0.33867392
-5.86701632 8.05531406 0.37293738
-5.86491489 7.99829102 0.25757962
-5.78124332 7.10845804 0.09321408
-5.82187033 7.39672518 0.08828415
-5.64737177 7.39269686 0.07907183
-5.63594866 7.09676743 0.08436859
-5.49019718 7.0843215 0.09617735
-5.64534473 6.83606195 0.15239483
-5.47240782 7.37460709 0.09122992
-5.8492384 7.73407984 0.15859355
-5.94092989 7.90474081 0.25564861
-5.68179655 7.73634291 0.15229079
-5.51434708 7.71087122 0.16281328
-5.480021 7.86152124 0.26445639
-5.38468647 9.88851357 0.43602142
-5.38825226 9.92639256 0.47816214
-5.3792038 9.74141598 0.35503557
-5.5024724 9.88920403 0.42417186
-5.50530767 9.91941643 0.46576226
-5.62347412 9.87349892 0.42796734
-5.62330818 9.91392517 0.46968433
-5.51230049 9.74800968 0.34155127
-5.64994383 9.73032188 0.34835929
-5.8556757 8.07755375 0.33143002
-5.84617662 8.21316719 0.26925093
-5.70636034 8.19089413 0.26026672
-5.72822905 8.05683041 0.32633451
-5.60152531 8.04811382 0.33829144
-5.56846857 8.1896019 0.27479145
-5.84825563 8.54146004 0.24149522
-5.82455349 8.96739197 0.24721746
-5.62545824 8.95081997 0.22622588
-5.67273378 8.51869297 0.22488223
-5.49913263 8.51472187 0.24569969
-5.42838383 8.94152927 0.2509205
-5.73770952 9.39598465 0.28547505
-5.56263781 9.3979063 0.27034187
-5.39108849 9.38809204 0.29035038
-5.61445475 9.94000244 0.41889063
-5.62437725 10.06068134 0.33716482
-5.49295902 9.93658543 0.41387612
-5.37061357 9.95207024 0.42630967
-5.47880077 10.05203629 0.3284595
-5.33470297 10.06643391 0.34271851
-5.28753185 11.66814327 0.29375419
-5.26480722 11.80474091 0.3607052
-5.23365068 11.51562119 0.21739575
-5.45202684 11.51642227 0.19541249
-5.50718451 11.65855694 0.27693486
-5.49519157 11.85742474 0.33496168
-5.7245388 11.61969662 0.29889679
-5.72840214 11.84479904 0.34987617
-5.67773199 11.48376274 0.21896997
-5.70121574 11.18743038 0.2155287
-5.72535133 10.79853535 0.25056911
-5.45194769 11.20422077 0.19040529
-5.47173834 10.79882526 0.22679359
-5.21919918 11.18650723 0.21590865
-5.23792791 10.77377319 0.25229579
-5.68054104 10.38490582 0.28608561
-5.47620869 10.37710762 0.26945502
-5.28345156 10.37037563 0.28963986
-5.57607794 12.40863037 0.26649129
-5.40444326 13.0475111 0.27324897
-5.29374886 12.33981991 0.26951718
-5.62851477 14.09847736 2.43414807
-5.75815105 14.01447392 2.76944995
-5.54212523 14.1258831 2.77279615
-5.37686348 14.17347145 2.48204875
-5.47536135 14.14374161 2.1011703
-5.350492 13.49775982 0.59457421
-5.36449242 13.81048298 1.09109068
-4.99093866 13.81281471 1.07925045
-4.96567631 13.49696159 0.58261192
-5.39673042 14.03677654 1.62338829
-5.11130333 14.19776154 2.16877294
-5.0449872 14.04743767 1.62232029
-3.98709297 5.84394789 1.59546077
-3.99871159 5.59719181 1.51948738
-3.83492732 5.6278038 1.3773725
-4.00642157 6.27705526 1.67936981
-4.20161057 5.84536505 1.60005915
-4.20241785 5.60391951 1.52395678
-4.42982435 5.86113644 1.57623672
-4.41444635 5.6263833 1.50161743
-4.20633173 6.26810694 1.68787837
-4.4218874 6.27773571 1.66590369
-4.58859634 5.68128633 1.34796345
-4.09829426 9.35555363 2.25803566
-4.07954502 9.16034412 2.2138586
-4.12042856 9.54934883 2.32917428
-4.32517815 9.34607792 2.3048842
-4.30258465 9.16068459 2.25385618
-4.56062222 9.36408424 2.28029561
-4.5265131 9.16776657 2.22769117
-4.34893703 9.52582455 2.38561916
-4.59472466 9.55567455 2.35747457
-4.12204885 9.80800629 2.38617158
-4.13147688 10.06334496 2.46420956
-4.37205839 9.77273941 2.4605372
-4.64551067 9.81366253 2.40883327
-4.39700603 10.01394844 2.56024361
-4.69013214 10.06946945 2.47870469
-4.30153656 10.95459366 3.62342072
-4.29420185 10.86456966 3.39519954
-4.59636641 10.91607857 3.70613408
-4.56857872 10.80766201 3.48290133
-4.86702585 11.00395775 3.63665128
-4.82866907 10.898386 3.39005637
-4.40242767 5.82682991 0.24421701
-4.43643188 5.70076609 0.36982238
-4.3697772 6.04972458 0.11910437
-4.22128534 6.0225997 0.1097436
-4.20803547 5.78469229 0.23753145
-4.01807785 5.79054594 0.25226969
-3.96068931 5.659688 0.38021946
-4.19439459 5.64761019 0.36219585
-4.07270956 6.02105856 0.12390728
-4.27068806 10.65886593 3.09605646
-4.23129749 10.42416763 2.80448103
-4.51832676 10.58287239 3.2045505
-4.46440268 10.33980465 2.92939591
-4.77207184 10.67959595 3.09513807
-4.72250319 10.43562222 2.81474853
-4.17650032 10.24721241 2.59857726
-4.42609882 10.17656612 2.7154367
-4.70570946 10.25452042 2.61154056
-4.10682344 7.13135147 0.2607047
-4.11904812 7.11655092 0.29678684
-4.07923365 7.07668686 0.1823464
-4.23355675 7.09664583 0.17341843
-4.24324751 7.14459276 0.25305712
-4.38027382 7.13565063 0.25866359
-4.37905502 7.12033796 0.29486841
-4.24891281 7.12106705 0.28891268
-4.38807821 7.08415842 0.17967695
-4.39120483 6.29372692 0.04933691
-4.42020512 6.56245089 0.03968249
-4.21730566 6.55590487 0.03012869
-4.22050762 6.27743912 0.03916024
-4.04669285 6.26703024 0.05431072
-4.0103898 6.53796577 0.04546976
-4.41027546 6.85950994 0.09490703
-4.47987795 6.99603224 0.18421923
-4.22328234 6.86469603 0.08699441
-4.03416252 6.84337187 0.09937505
-3.98525643 6.98018408 0.18907733
-4.22160864 9.09995842 0.30872676
-4.2277174 9.19339371 0.3600952
-4.19265652 8.89379025 0.22970818
-4.34513712 8.92317104 0.22231555
-4.3577137 9.12568951 0.30434942
-4.49564934 9.13429546 0.31921518
-4.49789238 9.22938538 0.37144601
-4.36188412 9.21290493 0.35580671
-4.49937153 8.92750835 0.23897424
-4.37661409 7.14456558 0.25129601
-4.39564991 7.27194786 0.18301308
-4.24988461 7.26170778 0.1714289
-4.24710989 7.13859844 0.2439847
-4.11802053 7.14147234 0.25292796
-4.10485935 7.26544046 0.18342671
-4.45886278 7.56610298 0.14508697
-4.51630735 7.98650837 0.14151025
-4.29665804 7.97698975 0.11443996
-4.26928234 7.5549159 0.12440657
-4.08068657 7.54777813 0.14257669
-4.07822657 7.95628834 0.13578333
-3.93945599 7.9423914 0.18907152
-4.51803446 8.49260998 0.17627242
-4.65926313 7.99058867 0.19895697
-4.32336426 8.48667049 0.15304349
-4.13020611 8.45876217 0.16844307
-4.49712658 9.32919502 0.35012683
-4.51096821 9.56093121 0.30919066
-4.35630894 9.52607536 0.28797236
-4.35843992 9.30348587 0.3333472
-4.22163773 9.29021645 0.33841172
-4.20444822 9.51218796 0.2955417
-4.22121668 11.62631893 0.30476567
-4.26527262 11.85479736 0.3390758
-4.21068764 11.4561739 0.24610138
-4.46161842 11.5055418 0.24304403
-4.49367619 11.67184734 0.31416625
-4.7699275 11.6883831 0.33767748
-4.86657238 11.81354523 0.38261995
-4.56659126 11.86844158 0.35769325
-4.71743155 11.52919197 0.27735883
-4.66768169 11.1545887 0.27958637
-4.6157856 10.63773823 0.30210212
-4.42163277 11.11922455 0.23856869
-4.18229866 11.06904602 0.25052321
-4.1623764 10.54924393 0.27671796
-4.38534307 10.59358692 0.26102543
-4.55703402 10.05181694 0.30257714
-4.36442232 10.00932503 0.27067924
-4.17722702 9.98107815 0.28335139
-4.60905981 14.16397572 2.33291101
-4.4850688 14.13013363 2.54542565
-4.70465183 14.16939545 2.06528997
-4.89288092 14.19622898 2.39507794
-4.73317432 14.1840601 2.5765183
-4.58709908 13.49936104 0.58362079
-4.52839804 13.05199814 0.275314
-4.62213659 13.81223869 1.06584215
-4.68517685 14.04386711 1.60133207
-2.6034708 12.42338657 2.89630556
-2.2269733 12.3065424 2.44229841
-2.58748341 13.07246494 2.26427913
-2.76565957 12.91929722 2.85895371
-2.89548087 12.77806473 3.2865119
-2.85871792 12.36165333 3.28779268
-2.52968049 11.93222141 2.94701028
-2.59183669 10.93391418 2.06187057
-2.50841856 10.8182106 1.80384851
-2.26522326 10.73791981 1.97977304
-2.24300504 10.8809433 2.19161677
-2.6863873 11.02215767 2.36368012
-3.08631563 13.74985981 2.28501844
-2.99495959 13.45945168 2.57883286
-2.89354038 13.62114048 2.03353477
-3.03845954 13.83222389 1.8663733
-3.18769979 13.98004818 1.97930384
-3.27735019 13.65924072 2.70347643
-3.25975442 13.54800224 0.7375012
-3.2646904 13.24160671 0.44375259
-3.21670055 13.80444622 1.15265357
-3.06536531 13.71170139 1.14667761
-3.11223817 13.48604679 0.74388391
-3.13600302 13.27895737 0.53803229
-2.93584657 13.30798244 0.78342116
-3.0167172 13.09477234 0.49721634
-2.88859224 13.48882771 1.17970896
-2.66505313 13.11293888 1.14331961
-2.72695613 12.99899006 0.79123878
-3.21192074 13.97335529 1.584216
-3.04261899 13.84303761 1.56150174
-2.8510592 13.56367397 1.63075364
-2.59174323 13.13199806 1.60298443
-2.98138094 12.24068165 3.58166265
-2.96294641 12.60280418 3.67252445
-2.99735451 12.38236427 4.02241564
-3.05564499 12.03833961 3.7619586
-3.04993129 11.89010048 3.50873542
-2.88392448 11.95426464 3.28215146
-3.16556954 11.73261166 3.81260324
-3.08303285 12.00457764 4.07128525
-3.20048499 11.53072643 3.59554029
-3.10498214 11.813797 3.62966394
-3.13240457 11.53924751 3.40362263
-2.99711609 11.30864716 3.05425429
-2.92948675 11.60631847 3.19003725
-5.91366053 6.5945015 0.4747498
-5.71121597 6.50974894 0.44684687
-5.71170235 6.64801407 0.48790061
-5.84963417 6.72691727 0.53801507
-6.04377747 6.67583847 0.61704576
-2.83253884 8.66943836 2.05212092
-3.0199194 8.63517284 2.07530999
-2.79968905 8.30067635 1.91712904
-2.64076996 8.34488297 1.82618308
-2.67735815 8.74528599 1.97845042
-2.73921084 9.00614262 2.08480048
-2.86129117 9.00800705 2.15903425
-3.05177331 8.96906376 2.1793859
-2.59865332 8.89687061 1.83447266
-2.54283762 8.3950882 1.63253367
-2.70063329 9.22670269 2.0675137
-2.87304115 9.29836655 2.17019653
-3.08309984 9.24770546 2.19127202
-3.19522405 8.60833836 2.06784034
-3.15789962 8.24698162 1.94091523
-2.98394752 8.26664925 1.94287288
-3.23410439 8.9357481 2.16747689
-3.35304785 8.89362526 2.10408354
-3.3513577 8.63688946 2.00803256
-3.3092885 8.25440979 1.86965501
-3.298033 9.21057701 2.17949009
-3.45251632 9.08494759 2.08906317
-3.48122644 8.76878738 1.87420332
-3.42586017 8.30166054 1.68749189
-2.77564883 7.91976595 1.82173228
-2.94027138 7.88413572 1.84590375
-2.73741698 7.52950048 1.76519144
-2.6273675 7.57918978 1.74179173
-2.62509322 7.91499949 1.75424099
-2.66199923 7.13274908 1.74676704
-2.84042263 7.09946489 1.77209723
-2.53570938 7.32370567 1.69751453
-2.89154291 7.49319744 1.78783572
-2.50892401 7.80760574 1.62315786
-3.09863949 7.8703413 1.84703279
-3.23362923 7.83210325 1.8004564
-3.15925527 7.5074296 1.78307426
-3.04476714 7.48274612 1.7902652
-3.32811379 7.72313976 1.68151617
-3.192518 7.24738121 1.74700427
-3.02360868 7.08858299 1.77468824
-5.38910007 8.82340145 2.17479396
-5.51751757 8.82071018 2.16960192
-5.41886711 8.56217384 2.1003027
-5.28023481 8.60150623 2.03722024
-5.26266289 8.87879848 2.12596154
-5.3572607 9.04224014 2.220047
-5.49292421 9.04354382 2.21909571
-5.14388084 9.02231216 1.98058224
-5.13629055 8.68117905 1.84372973
-5.10831165 9.46113491 1.99709749
-5.19720554 9.20218754 2.13268542
-5.26834965 9.04316521 2.17303276
-5.32039022 9.25871372 2.20211124
-5.48710489 9.26089668 2.20911241
-5.64224339 8.83530998 2.15291142
-5.67872429 8.5728054 2.07709646
-5.55181885 8.55524826 2.09344101
-5.630867 9.05709648 2.19790196
-5.76299524 8.88847542 2.08644247
-5.7970705 8.60457134 1.99699295
-5.67101669 9.27774334 2.1739378
-5.8193922 9.22076988 2.08530211
-5.74002934 9.06120205 2.135535
-5.87949085 9.00149632 1.93191504
-5.90434885 8.64027023 1.7988528
-5.44952106 8.21852398 2.03052592
-5.58676195 8.21001053 2.02342272
-5.46209097 7.85147142 1.9520421
-5.32926655 7.89236641 1.93352234
-5.30356932 8.21049595 1.97952843
-5.4376049 7.52004337 1.85142779
-5.67176294 7.54369068 1.84356463
-5.23454905 7.66571474 1.84435642
-5.1503129 8.14086056 1.82005548
-5.71388721 8.23003006 2.00858569
-5.83319759 8.22903728 1.93988705
-5.85288668 7.93495417 1.89583707
-5.76499462 7.87517834 1.92977536
-5.94699764 8.15748596 1.77119446
-5.948349 7.74042988 1.79668057
-5.84930754 7.57649279 1.82305932
-4.09656763 8.1772728 2.09910583
-4.25460052 8.16038418 2.11799836
-4.0903964 7.76858902 1.95179963
-3.95311904 7.81643915 1.87600982
-3.95842552 8.2440691 2.03460002
-3.99138546 8.54119778 2.14827514
-4.10068846 8.56904507 2.23212767
-4.26668739 8.56116009 2.25403118
-3.86321139 8.39575863 1.901057
-3.84999013 7.87168503 1.70687616
-3.93336773 8.7722044 2.12638378
-4.08767891 8.89745712 2.23780107
-4.28288507 8.89682102 2.26811028
-4.40948582 8.15841103 2.11469483
-4.39385366 7.74734879 1.96849167
-4.42960644 8.55625439 2.2462337
-4.53992891 8.52395916 2.16935158
-4.55390978 8.21521282 2.05949283
-4.53815317 7.78187609 1.90114617
-4.47572851 8.89560032 2.25011921
-4.74279785 9.10469723 2.00195909
-4.62276602 8.76460457 2.14718771
-4.6805563 8.37464333 1.92268348
-4.67284203 7.83964872 1.72396541
-4.09725237 7.38936472 1.90326822
-4.24343681 7.74120903 1.97053146
-4.23001051 7.35028219 1.92214894
-4.09261513 7.02548742 1.87439394
-3.99556184 7.08293152 1.82809699
-3.9727881 7.40173244 1.83513176
-4.05196762 6.66280699 1.78605437
-4.21092463 6.63480806 1.79961503
-3.92853665 6.8483119 1.74825001
-4.2179594 6.98301935 1.89209509
-3.86648917 7.30358315 1.68889892
-4.3611927 7.36828375 1.92061102
-4.49193382 7.36787653 1.85918105
-4.45481777 7.05753994 1.84283316
-4.34519529 7.00770044 1.88765717
-4.62336874 7.27356482 1.69838715
-4.52723789 6.82736349 1.75084615
-4.37955236 6.6520524 1.78623331
-0.43776697 -17.46297455 26.73143768
-0.44417176 -17.93904877 26.63523483
-0.37561834 -17.60611343 26.82465553
-0.44036633 -17.12950516 26.91174889
-0.45666489 -17.01132774 26.82794762
-0.51249629 -17.36156082 26.64709663
-0.54286891 -17.94925499 26.47016716
-0.45005801 -18.34124184 26.56554222
-0.52961338 -18.37697792 26.39139366
-0.4471446 -18.63409996 26.51567841
-0.32489309 -18.6597538 26.68877411
-0.36542177 -18.21674538 26.72460556
-0.9253248 -16.22371674 27.21167374
-0.95245087 -16.17403984 27.32732964
-1.02811527 -16.01742744 27.25551414
-0.98722059 -16.05472946 27.13966751
-0.87173331 -16.24672318 27.11524963
-0.80956781 -16.42541695 27.15448761
-0.81092942 -16.41703987 27.27326775
-0.25384909 -19.1847229 26.47818375
-0.26287001 -19.16666031 26.46894264
-0.272313 -19.23751068 26.43075943
-0.26081795 -19.25929832 26.45063782
-0.26084837 -19.2433567 26.4765892
-0.25296253 -19.17445564 26.49152946
-0.23002021 -18.9953537 26.50896835
-0.32183507 -18.87937927 26.51939583
-0.3091183 -18.9217968 26.5340271
-0.33472243 -18.93065262 26.53471184
-0.35601291 -18.88767624 26.50030136
-0.32568938 -18.88506317 26.49765396
-0.27365986 -18.75337029 26.54687881
-0.26185256 -18.76485252 26.54794312
-0.57037008 -18.51901245 26.17400742
-0.62573415 -18.22967529 26.17946434
-0.67158759 -18.38409042 25.94211006
-0.5842731 -18.66585732 25.9775238
-0.51898885 -18.79433632 26.16833305
-0.51985401 -18.69597244 26.32813263
-0.7067908 -17.95787811 26.19687653
-0.78973383 -17.67024422 26.21291542
-0.86321616 -17.72977066 26.00265503
-0.77010632 -18.06614113 25.9693718
-0.63961267 -17.71992111 26.43164062
-0.85077131 -17.33124542 26.26437569
-0.72005481 -17.56682587 26.37431145
-0.73427522 -17.28004074 26.46189308
-0.89757121 -17.02257729 26.31325531
-0.98515272 -17.09110832 26.09688187
-0.9343214 -17.39246178 26.04951096
-0.93780559 -16.82513237 26.33733559
-0.99425751 -16.66473198 26.33647537
-1.05043232 -16.6738472 26.16271019
-1.01744235 -16.86171532 26.13719368
-0.76747257 -16.87196159 26.5397892
-0.85549039 -16.72974014 26.51618385
-0.89420831 -16.00360107 26.84553719
-0.91332525 -15.96000099 26.85116196
-0.91152364 -16.01596642 26.85230637
-0.86622113 -16.04525185 26.84693909
-0.86050951 -16.00754929 26.84088516
-0.87877417 -15.98852158 26.83607483
-0.88996536 -15.96349335 26.84057045
-0.82008952 -16.08181953 26.84963799
-0.87467647 -16.07766342 26.85105324
-0.81952047 -16.11423683 26.85177422
-0.75525963 -16.10426521 26.85564613
-0.76079488 -16.0815506 26.85366058
-0.82203877 -16.04850769 26.84615898
-0.67117727 -16.10356903 26.86696815
-0.74926698 -16.13196754 26.85664749
-0.66712785 -16.13714218 26.86785507
-0.62995368 -16.10002136 26.89049149
-0.67421037 -16.07682991 26.8651638
-0.95333093 -15.89595032 26.91900253
-0.95094419 -15.92441845 26.94368362
-0.99509788 -15.89998531 26.93730545
-0.98870474 -15.89500237 26.91140938
-0.97501242 -15.90930367 26.89264107
-0.94782764 -15.89129829 26.89427185
-0.91954923 -15.88359737 26.92406273
-0.93284541 -15.91760731 26.86953354
-0.95795542 -15.92512512 26.87364578
-0.93697774 -15.95612907 26.85875702
-0.90721476 -15.90453339 26.86322021
-0.69370067 -16.11392403 26.93311501
-0.6817106 -16.15596199 26.92590332
-0.79492307 -16.15904236 26.97282028
-0.79593515 -16.11670303 26.97319031
-0.78107572 -16.08775902 26.97451401
-0.6852113 -16.08047867 26.93293381
-0.87017512 -16.07979202 26.98906898
-0.91831672 -16.02385712 26.98576736
-0.88902026 -16.00768471 26.98821068
-0.84815764 -16.05512238 26.99071312
-0.88676631 -16.099123 26.99444199
-0.94225627 -15.96955872 26.96828651
-0.91224641 -15.93283176 26.95102882
-0.90622669 -15.97055912 26.97369766
-0.94059682 -16.03655434 26.99041748
-0.97043169 -15.96935081 26.97029686
0.00120792 -19.65842247 25.75637436
-0.23868765 -19.52394867 25.77703094
0.00121964 -19.647995 25.6717205
-0.50059032 -18.73726273 25.67981148
-0.57729059 -18.46341896 25.68598175
-0.52268374 -18.45731354 25.72853851
-0.45125896 -18.73341179 25.70290947
-0.44708756 -18.94779205 25.67559242
-0.49130327 -18.94490814 25.70891953
-0.5583427 -18.73020172 25.69640732
-0.58325303 -18.72158241 25.81635094
-0.67565221 -18.44531631 25.79036522
-0.64264071 -18.45730591 25.6876049
-0.50391865 -18.94207573 25.85013199
-0.5060938 -18.90287018 26.0265007
-0.69551319 -18.11575699 25.69296074
-0.80940634 -17.73658943 25.70259094
-0.75931817 -17.72075462 25.74610138
-0.64307833 -18.10691452 25.73533249
-0.7530058 -18.11723137 25.69664955
-0.7816934 -18.11003876 25.80526352
-0.88102949 -17.75313568 25.82548523
-0.85811132 -17.75115013 25.70782661
-0.95332628 -17.41259003 25.86319351
-1.00148952 -17.10809708 25.90179062
-0.92663926 -17.40100479 25.7363739
-1.0284282 -16.85924149 25.93761444
-1.05231559 -16.65237808 25.96702385
-0.98751533 -16.83452988 25.79407692
-0.96697646 -17.08819962 25.76495552
-0.96553046 -16.3860817 25.84383392
-1.01999366 -16.13826752 25.86988258
-0.88360387 -16.36046982 25.89438057
-0.84644234 -16.59136581 25.84033203
-0.92483294 -16.60143089 25.79781914
-1.04743361 -16.42557335 25.85759735
-1.11115539 -16.20148087 25.87244797
-1.09132695 -16.47377777 25.9951458
-1.14020038 -16.32141685 26.02321625
-1.00781333 -16.62023544 25.82015991
-1.10336435 -16.49791527 26.16246414
-1.14358068 -16.36855507 26.13253593
-1.23097503 -15.67416668 25.62137222
-1.28920639 -15.32221413 25.63041306
-1.16383147 -15.70152664 25.50140381
-1.12519503 -16.16768646 25.63002205
-1.13197553 -16.141222 25.74585342
-1.23258936 -15.67646885 25.74534225
-1.26426542 -15.42412949 25.72068024
-1.01885521 -16.74466324 25.58832359
-0.88916034 -17.39829826 25.53245544
-0.89326555 -17.36763954 25.62794685
-1.02529359 -16.70618057 25.69417
-1.06313157 -16.20600319 25.51539421
-0.96846068 -16.78641129 25.48375702
-0.71327239 -18.11902618 25.48514748
-0.49961469 -18.76276398 25.45155334
-0.71660715 -18.11795235 25.5647049
-0.8537668 -17.42173576 25.44023895
-0.69291472 -18.08869743 25.40929222
-0.48867163 -18.72348595 25.3671627
-0.93260098 -16.02292252 26.85366821
-0.96121579 -15.95149708 26.8603611
-0.94858587 -16.022892 26.8463707
-0.89907885 -16.10811806 26.84310722
-0.88861972 -16.0994854 26.85128784
-0.82171196 -16.14486122 26.85122108
-0.82172263 -16.16523361 26.84299278
-0.74235988 -16.16963577 26.8556881
-0.98202431 -15.92153645 26.87335396
-1.00178647 -15.90340233 26.88777924
-1.00543165 -15.90456676 26.86858559
-0.98058867 -15.94366741 26.85434341
-0.89250511 -16.10778236 27.01385117
-0.94884431 -16.04228783 27.00925827
-0.81757092 -16.1660347 26.99902344
-0.88069791 -16.1094532 27.04249382
-0.94204956 -16.03853989 27.03855515
-0.61041594 -16.58611488 26.74133682
-0.52174056 -16.59722137 26.82584381
-0.54695511 -16.44187737 26.8615551
-0.60848999 -16.42351532 26.80819321
-0.7252723 -16.40269852 26.77277184
-0.73467177 -16.59186363 26.67221451
-0.61432558 -16.85947609 26.66233635
-0.83645886 -16.56126595 26.62128067
-0.84027714 -16.38197327 26.69208145
-0.93835348 -16.47948265 26.57190323
-0.9386245 -16.60469246 26.48753166
-0.98289889 -15.97072124 26.98715019
-0.98433948 -15.96337509 27.01224136
-1.0064497 -15.9093647 26.98675346
-1.00964308 -15.89993 26.96169472
-1.21412849 -15.8597374 25.90097618
-1.14230585 -15.87034225 25.88123703
-1.19329882 -16.07829857 25.92158508
-1.25082242 -15.9829483 25.97637177
-1.27629673 -15.81787682 25.94546509
-1.24244404 -15.62044239 25.92124748
-1.27129853 -15.0849514 25.80323029
-1.21564734 -15.11378479 25.75797844
-1.274984 -15.177351 25.87288666
-1.35175371 -15.03744507 25.85758018
-1.26714802 -14.95789623 25.72125435
-1.27911997 -15.24705029 25.90277672
-1.18562114 -15.26734829 25.88754463
-1.27765238 -15.32711029 25.91752052
-1.36511195 -15.23516369 25.95294952
-1.36162376 -15.14287186 25.92668152
-1.26452208 -15.44753075 25.9213028
-1.1851387 -15.42417812 25.91391182
-1.17021608 -15.59584045 25.91674995
-1.33794391 -15.4689579 25.95953369
-1.35846925 -15.33762169 25.96427345
-1.19367754 -16.19244957 26.06505013
-1.17317307 -16.2924099 26.21398544
-1.21272647 -16.16475105 26.29541397
-1.24275947 -16.07522964 26.11137199
-1.23485637 -14.55426979 25.60976219
-1.33585072 -14.90845776 25.77385139
-1.18528044 -15.76677704 26.73322868
-1.15349925 -15.79215336 26.82573128
-1.18133509 -15.65515423 26.89782715
-1.21718216 -15.57487869 26.78708458
-1.21229219 -15.71271992 26.63585663
-1.18665683 -15.87880898 26.60767174
-1.15336895 -15.92624378 26.6910553
-1.11070538 -16.08710289 26.64782715
-1.05542588 -16.1079483 26.69823837
-1.11350262 -15.93466377 26.77794647
-1.16277158 -16.0196209 26.59206772
-1.15404975 -16.11809349 26.55854034
-1.07474399 -16.22754669 26.59612846
-0.96985966 -15.80471802 27.51959419
-0.93667829 -16.00347328 27.45935631
-0.7984429 -15.8230238 27.59693336
-1.0022136 -15.57957172 27.57964325
-1.0935576 -15.76642704 27.41101456
-1.03010952 -15.98185635 27.36979485
-0.65010613 -16.17426872 24.89930534
-0.74689507 -15.52391434 24.87260056
-0.458731 -16.1708622 24.81964111
-0.57462472 -16.80373955 24.95976639
-0.23670901 -16.17434692 24.71754456
-0.24095181 -15.51537514 24.65756798
0.00069748 -16.17831039 24.66081429
-0.21097009 -16.82099342 24.776474
-0.4076471 -16.81526184 24.88526917
-0.51164824 -17.39292336 25.0013504
-0.36004788 -17.41498375 24.93953323
-0.46468118 -17.87974358 25.0287838
-0.43733594 -18.20058632 25.05394936
-0.54473507 -18.11204529 25.10136223
-0.32291555 -17.92354774 24.99233055
-0.30328974 -18.28598404 25.02199364
-0.39880908 -18.4441433 25.08778954
-1.03167582 -15.81522274 25.43099022
-0.95532691 -16.27368164 25.45773888
-1.08136928 -15.47120953 25.35679817
-0.97285026 -15.67905426 25.29367447
-0.90319777 -15.95911884 25.34684181
-0.88480145 -16.82780075 25.43877792
-0.79899776 -17.42071533 25.40352058
-0.84517652 -16.39001083 25.38732529
-0.79302716 -16.9195137 25.37924767
-0.63349825 -17.30514526 25.08540916
-0.70142186 -16.74158287 25.07287598
-0.67671549 -17.99199486 25.36348724
-0.56510949 -18.41310501 25.31473923
-0.73364598 -17.46216583 25.35206795
-0.65382344 -17.92792892 25.30908203
-0.59091902 -18.2216835 25.27115059
-1.07606423 -14.23140621 25.32730675
-1.15589404 -14.58411694 25.38298798
-1.12907517 -14.24627304 25.53992081
-1.04639256 -13.88470936 25.53881836
-0.98471731 -13.84130096 25.31589127
-0.84609425 -13.90272713 25.03740311
-1.16723299 -14.25646019 25.64600182
-1.20467651 -14.25024128 25.72269821
-1.07413638 -13.90268326 25.67619324
-1.06687331 -14.38398647 26.63615036
-1.13917685 -14.65530682 26.67497826
-1.13835263 -14.5721674 26.73971558
-1.07896435 -14.35925102 26.72756004
-1.01555037 -13.94661808 26.58527184
-1.07047987 -14.0208292 26.497509
-1.11927938 -14.40820122 26.54762077
-1.22479594 -13.04391098 26.5741806
-1.19383335 -13.81578445 26.74213409
-1.3761034 -13.75073528 26.85162926
-1.40272331 -12.88739586 26.6488533
-1.26639199 -12.20051384 26.30169868
-1.09073162 -12.27935696 26.28668213
-1.0530175 -13.1192379 26.53473473
-1.46730602 -12.56302357 26.81900406
-1.42860758 -13.16191387 26.98632622
-1.41392326 -12.65634537 27.21460533
-1.44258225 -12.15502453 27.04389954
-1.51521802 -11.85416889 26.54152298
-1.44403327 -12.07323456 26.36488914
-0.89868814 -13.45501328 25.3164196
-0.96804142 -13.50259876 25.5098896
-0.92120481 -13.03591633 25.38689995
-0.82362449 -13.00501919 25.23981094
-0.7545073 -13.3920145 25.10132027
-0.52909118 -13.33569145 24.88068199
-0.55482978 -13.78890324 24.84950638
-0.66192448 -12.95063591 25.06102562
-0.96907699 -13.51142406 25.64771271
-0.98354501 -13.51949406 25.75863075
-0.91619629 -13.02103996 25.51809692
-1.00688064 -13.20000553 26.47021866
-1.03915203 -13.87551212 26.6751976
-1.02548957 -12.35310364 26.25450134
-1.02708006 -12.51146507 26.23983955
-1.04187167 -13.33329678 26.41167831
-1.29411733 -11.46276569 25.91436005
-1.47188413 -11.3312788 25.95583725
-1.32067251 -10.84216404 25.29807091
-1.14795196 -10.92357349 25.30408287
-1.12244904 -11.54476166 25.91110992
-1.55667686 -11.11314964 26.08167076
-1.49665618 -11.57442188 26.78196526
-1.55842197 -10.84307861 26.28175354
-1.59343386 -10.42723083 25.38359642
-1.50231981 -10.69394493 25.31519127
-0.76544589 -12.42639923 25.02017212
-0.93339247 -12.42539787 25.15642738
-0.97407502 -11.81011868 24.73317337
-0.73374176 -11.84210205 24.60656166
-0.57041389 -12.40800476 24.8612175
-0.44245183 -12.40231609 24.66667938
-0.47441804 -12.89533138 24.83306503
-0.50499547 -11.86530399 24.47142792
-0.97972727 -12.37302017 25.28386497
-1.08556557 -11.72168446 24.84490776
-0.98262686 -12.28846741 25.41588974
-0.88493252 -13.03179646 25.69689369
-1.03881991 -12.76583481 26.01094055
-1.05595148 -11.61440182 25.89989662
-1.08361721 -10.98985004 25.30508614
-1.07918751 -11.06805992 25.28775024
-1.04965222 -11.71310043 25.86884689
-1.05857956 -11.88229275 25.80608559
-1.04844654 -12.57670021 26.11814117
-1.08618271 -11.18526363 25.23876381
-1.09992814 -11.3231802 25.16205025
-1.05725646 -12.06165218 25.70700836
-1.35876179 -10.34999371 24.33909416
-1.55138695 -10.1934166 24.33678627
-1.40013063 -10.04299927 23.18861961
-1.17938685 -10.11566925 23.22113228
-1.16702485 -10.42378521 24.36202812
-1.62724233 -9.88356972 24.39161301
-1.60676432 -10.11410999 25.54129219
-1.62056983 -9.54061317 24.55865479
-1.58268344 -9.01540375 23.37897301
-1.67084396 -9.53442192 23.21845055
-1.61210334 -9.87712669 23.17348862
-0.75768077 -11.37590218 23.96763229
-1.01236486 -11.33292294 24.06177711
-1.06004333 -11.06141567 23.20467186
-0.62422407 -11.41090965 23.8754921
-1.15934658 -11.2250576 24.13103104
-1.21664798 -10.93728638 23.22609901
-1.09383452 -10.48526478 24.3690834
-1.09433186 -10.17877102 23.22832108
-1.09166336 -10.2472229 23.22512054
-1.08907056 -10.55438232 24.36004448
-1.10261285 -10.65108776 24.334692
-1.1180793 -10.33596134 23.22645187
-1.16957498 -10.45320606 23.22899246
-1.13427472 -10.77448177 24.29524803
-1.43652868 -9.97776413 21.99805641
-1.73698473 -9.43188095 21.97690964
-1.6468873 -9.03944302 22.03702354
-1.67748916 -9.79236603 21.97838974
-1.27295172 -10.91223907 22.21378326
-1.27732539 -10.77588367 23.22826385
-1.2151103 -10.39682579 22.08589745
-1.35259008 -11.74767399 27.28287315
-1.40505743 -11.265131 27.03661919
-1.32840824 -12.08394146 27.42828178
-1.1540674 -11.65908337 27.62375069
-1.21506977 -11.41453648 27.46913147
-1.48704469 -10.55581284 26.54597473
-1.23801911 -10.94610786 27.26163101
-1.36496615 -10.24489021 26.73234177
-1.55505931 -9.82667828 25.82629585
-1.56561065 -9.28471184 24.89299393
-1.49823701 -8.91212559 24.14483261
-1.45776939 -9.15358162 25.31475639
-1.39777029 -8.86238956 24.64318085
-1.83109725 -9.58328247 20.08690643
-1.56044126 -10.21617794 20.10346985
1.2594837 -10.62876987 20.14396667
1.326478 -10.7190361 20.19263649
1.21816981 -10.46932411 20.10551453
1.3135047 -10.35749817 20.10685539
1.31902111 -11.2678175 20.34347534
-1.16814947 -15.65062141 25.80475426
-1.07392192 -16.10859489 25.78857994
-0.98659188 -16.0039959 25.83071518
-1.09002137 -15.63579273 25.83368111
-1.23578513 -15.32770443 25.77557373
-0.67850453 -16.667799 27.07052612
-0.7344619 -16.43815613 27.03659439
-0.59051692 -16.74520683 26.9675045
-0.603697 -16.78683853 27.09088326
-0.52668351 -16.68687057 26.88939095
-0.597673 -16.46918297 26.93432426
-0.50463831 -16.87936974 26.77072716
-1.07467735 -15.83745956 25.88310814
-1.11660492 -15.57278824 25.89851189
-1.07683313 -15.61317825 25.87853813
-1.02796257 -15.78945255 25.88426971
-0.93961728 -16.07942009 25.90327644
-1.12543356 -15.34352112 25.89104271
-1.07969236 -15.49179268 25.90203285
-1.13260436 -15.37286377 25.89266777
-1.18947613 -15.32450581 25.90555954
-1.17102408 -15.25764942 25.84240532
-1.10138226 -15.41803932 25.88470459
-1.07329607 -15.5304985 25.91010284
-1.13278782 -15.43455315 25.89972687
-1.08489871 -15.5273428 25.888731
-0.20204632 -14.89354801 24.61876106
-0.51598954 -15.39267445 24.7628479
-1.05054367 -15.6708622 25.87046814
-1.03521037 -15.71597099 25.90495491
-0.99852681 -15.86387253 25.88175201
-1.25285995 -15.16466713 25.69118118
-1.21640277 -14.98749447 25.67294121
-1.23752511 -15.04404736 25.57899857
-1.24500322 -15.23670578 25.46927452
-1.37713599 -15.41651917 26.20948029
-1.35408652 -15.57465076 26.19993782
-1.35868514 -15.43232536 26.28053284
-1.37474954 -15.24231148 26.27778625
-1.3935945 -15.24320507 26.21268463
-1.39924192 -15.2644577 26.14024734
-1.38108504 -15.42026138 26.13525009
-1.35751438 -15.57191753 26.12301636
-1.37240982 -15.44854259 26.03998375
-1.34478688 -15.60104275 26.02983093
-1.39326704 -15.30598927 26.04576683
-1.33081734 -15.71389866 26.19495201
-1.31380153 -15.73845959 26.26403427
-1.33520114 -15.59702206 26.27589417
-1.33238745 -15.71343708 26.12687302
-1.3101083 -15.81437111 26.12701416
-1.30603516 -15.839674 26.18101501
-1.31496406 -15.75878429 26.02849197
-1.30879879 -15.62856865 25.95209312
-1.29037356 -15.88792801 26.0551796
-1.27844656 -15.95915222 26.14894295
-1.26477087 -15.99624825 26.26676559
-1.29136503 -15.86778355 26.2568531
-1.24511087 -15.61745167 26.56465721
-1.22286654 -15.78041649 26.54668617
-1.23477769 -15.44893074 26.66759109
-1.2604965 -15.3907547 26.56274414
-1.28265333 -15.52471924 26.47931862
-1.26137078 -15.68294811 26.46822357
-1.3238517 -15.46601868 26.37996101
-1.30155599 -15.62747669 26.37272072
-1.30045974 -15.31836128 26.47397995
-1.34112561 -15.26876736 26.37560463
-1.28488684 -15.765172 26.36327553
-1.26547313 -15.89204788 26.36433601
-1.2482537 -15.81691551 26.4597702
-1.23494267 -16.01992416 26.39546967
-1.17389536 -16.16204071 26.44577599
-1.2092762 -16.00144196 26.49763107
-1.24045384 -15.90552902 26.43938828
-1.20808542 -15.9152441 26.53445625
-1.2546978 -15.05805206 26.53797722
-1.21727443 -15.03496552 26.63055229
-1.23125744 -14.707201 26.5021286
-1.30314445 -15.03733826 26.44601059
-1.34271908 -15.0235033 26.35638428
-1.2916131 -14.73075867 26.4137249
-1.33265984 -14.75104046 26.33524704
-1.36286891 -14.78709221 26.25628471
-1.37387729 -15.02621365 26.26818848
-1.19373679 -14.4291296 26.46630287
-1.17323077 -14.68047142 26.59312248
-1.15139377 -14.08979321 26.43672943
-1.23053145 -14.14530277 26.38200951
-1.26679099 -14.44897079 26.39067078
-1.31498599 -14.47269344 26.31725121
-1.28011417 -14.17891121 26.31188774
-1.31862462 -14.20984745 26.20740128
-1.34852791 -14.52772331 26.23742294
-1.20944607 -13.64422703 25.97648621
-1.26207054 -13.93739033 25.96195984
-1.23200333 -13.84898853 26.21732712
-1.14931571 -13.52911949 26.20283699
-1.03059793 -13.30218124 25.89062119
-1.07719302 -13.21153259 26.15506935
-1.13488507 -13.45822716 25.98057556
-1.09337163 -13.56464005 25.86669731
-1.10685432 -13.90608501 25.77281189
-1.21848512 -13.86740112 26.30858612
-1.18467081 -13.78290844 26.36849403
-1.14745975 -13.51498127 26.29553604
-1.11346674 -13.56620979 26.39025497
-1.08834648 -13.14218807 26.33045578
-1.14061356 -13.46925449 26.33567238
-1.08441305 -13.10286617 26.25671387
-1.39708614 -15.05916119 26.2034111
-1.39072883 -14.86166 26.18946075
-1.40670156 -14.95646477 26.10573196
-1.40812933 -15.11176586 26.12676811
-1.40279233 -15.18014526 26.03515244
-1.40126252 -15.05979538 26.01251793
-1.37763584 -14.64620876 26.15535927
-1.35886157 -14.44427681 26.09960365
-1.37358582 -14.62808418 25.98474884
-1.39390278 -14.7896595 26.05428314
-1.38894594 -14.93012714 25.95313835
-1.36862218 -14.79201603 25.88083076
-1.3022424 -14.20255375 25.92362976
-1.32232368 -14.38585758 25.87166023
-1.25404727 -14.21127319 25.8235569
-1.18354404 -13.90517044 25.86580849
-1.30670679 -14.46406269 25.78734207
-1.27465892 -14.53408909 25.67116356
-1.29235816 -15.03256512 27.2097435
-1.29440236 -15.05054855 27.12845993
-1.2203697 -15.38369083 27.17293549
-1.28382492 -15.05196095 27.29026413
-1.34678817 -14.65346527 27.23073387
-1.33738267 -14.71740627 27.13698959
-1.30017221 -15.04102135 27.04026413
-1.33395469 -14.72987366 27.04050827
-1.30573475 -14.78152847 26.93212509
-1.29389954 -15.09520435 26.95610809
-1.25610971 -15.31296539 27.02029419
-1.19970703 -15.52893829 26.992033
-1.23368692 -15.44266605 26.93165398
-1.1459229 -15.67748737 26.96500587
-1.1633687 -15.59706593 27.05896568
-1.23511958 -15.35845566 27.10027695
-1.2585845 -15.1736145 27.37616539
-1.2906425 -14.89966583 27.44803238
-1.20903254 -15.41378403 27.2493515
-1.1982801 -15.47383881 27.34059715
-1.18277586 -15.30599403 27.48451233
-1.20154822 -15.07346058 27.55420494
-1.02253747 -15.35756493 27.63237762
-0.76650894 -15.52894592 27.71918297
-0.78694057 -15.27565575 27.79158211
-1.02999043 -15.13577366 27.70538139
-1.14403343 -15.53779411 27.44968987
-1.35952187 -14.39630413 27.00960732
-1.36022615 -14.40309334 27.11933327
-1.38271999 -14.11871815 27.10784721
-1.38406813 -14.01807308 27.01285744
-1.32463849 -14.34416008 26.90720367
-1.19800246 -14.33889294 26.81555367
-1.21206558 -14.67938328 26.81294441
-1.38432431 -14.27228069 27.23293495
-1.3460629 -14.6080761 27.35339928
-1.40120053 -14.08889866 27.367136
-1.40648532 -13.90633774 27.19998741
-1.41479003 -13.57295418 27.11555481
-1.43294919 -13.6212101 27.35528564
-1.43433309 -13.20744419 27.29049683
-0.87721628 -11.90965462 27.84380913
-0.85524315 -11.62800407 27.755867
-1.16959834 -12.04122734 27.75284004
-0.81020391 -12.24449921 27.94169998
-0.56685144 -12.00129509 27.89379501
-0.57328862 -11.75231075 27.80984688
-0.45657608 -16.91025352 27.11075783
-0.28481981 -16.99145508 27.16436005
-0.40274727 -16.66094208 27.31143951
-0.60869402 -16.60828018 27.25911522
-0.32534975 -17.31093597 26.96587753
-1.13015795 -15.68095684 27.12330627
-1.04823101 -15.87743568 27.08118057
-1.11186481 -15.74692917 27.19886398
-1.09900737 -15.75255585 27.02142334
-1.12027872 -15.76129055 27.29943466
-0.61642307 -17.29572105 26.56829071
-1.02373147 -14.91127396 27.82624054
-0.79637843 -15.07341862 27.86526108
-0.80499303 -14.87855434 27.95577621
-1.00263453 -14.75485706 27.91398811
-1.16049421 -14.68684864 27.81311607
-1.19211411 -14.84263325 27.69746971
-1.28390419 -14.69105339 27.59809494
-1.24564862 -14.57968521 27.72033691
-1.33473384 -14.40626907 27.54088974
-0.56213552 -14.72603512 28.05741882
-0.52112144 -14.87322235 27.9975338
-0.30290237 -14.45629978 28.07559967
-0.37542063 -14.37730026 28.11386299
-0.58678609 -14.62105179 28.07263184
-0.80156624 -14.74562073 28.00610733
-0.32510975 -13.75593281 28.10778999
-0.24040362 -13.7437582 28.07283974
-0.405258 -13.09135532 28.06537437
-0.53243864 -13.20630169 28.00934029
-0.37906691 -13.8018074 28.07081604
-0.36072665 -13.89998341 27.94261742
-0.46433884 -13.50664902 27.84716225
-0.40621749 -13.66100693 27.69942665
-0.32459566 -13.99857998 27.80780983
-0.41733769 -14.3500843 28.0016346
-0.42403832 -14.32512379 28.0990448
-0.5737617 -14.61329746 28.00219536
-0.39384845 -14.39680958 27.89141464
-0.54898739 -14.6395607 27.91053772
-0.77487987 -14.72918606 27.95922661
-0.78858447 -13.41373634 27.73729324
-0.92984998 -13.16291332 27.85850716
-1.11351991 -13.58575344 27.64892769
-0.70370209 -13.60023022 27.60595703
-1.21920109 -13.98721313 27.61799622
-1.32003474 -13.88294315 27.65354729
-1.28864598 -14.34213257 27.65927315
-1.20821679 -14.3978672 27.63957214
-1.12359476 -14.12607098 27.53844452
-1.0113833 -13.77050304 27.54607391
-1.18315518 -14.59746647 27.70875359
-1.1127094 -14.67946243 27.79996109
-1.12188816 -14.65473557 27.65122414
-1.1304065 -14.48234272 27.57588387
-0.96557337 -14.73730564 27.88763428
-0.92638737 -14.76987839 27.82146072
-1.06492126 -14.72374916 27.74092674
-1.0790745 -14.17477894 27.5213623
-1.09217405 -14.50443172 27.56228638
-1.0737313 -14.49533176 27.5737381
-1.06009781 -14.17842007 27.53551865
-0.95307678 -13.86353588 27.53174973
-0.96763331 -13.84466934 27.51977158
-0.35122472 -12.35785103 27.90733528
-0.42601308 -12.49225712 27.99965286
-0.22091375 -12.94954967 27.92447472
-0.15378101 -12.75274372 27.79177475
-0.35341206 -12.14965439 27.80592918
-0.59710127 -12.23018551 27.95296097
-0.16649674 -13.7466526 27.98528099
-0.23790111 -14.51179123 28.01375198
-0.10273873 -13.74998379 27.94359398
-0.29448685 -13.00071812 28.0329628
-0.87374741 -14.87125778 24.94769287
-0.99532849 -14.38400459 25.10198975
-0.70151824 -14.61406898 24.86920547
-0.49995112 -14.32098007 24.77890968
-0.37789768 -14.75012398 24.69858932
-0.30940679 -17.81122589 26.84157181
-0.22794411 -17.97555542 26.86744499
-0.20357014 -17.38516235 27.03665924
-0.3937473 -17.93202782 26.77457809
-1.00047231 -16.07179642 26.74221802
-1.05754304 -15.93090725 26.80134964
-0.92637855 -16.19622993 26.70166397
-0.90028489 -16.12470055 26.75116348
-0.96061367 -16.02615738 26.77978325
-0.95062065 -16.01702499 26.8177433
-0.98964554 -15.93019962 26.83908844
-0.89707577 -16.10620117 26.80303001
-1.10971391 -15.74715328 26.94872284
-1.06189287 -15.81109715 27.00455475
-1.12954128 -15.74516678 26.89611816
-1.09111106 -15.78360176 26.89045143
-1.07958746 -15.78466606 26.94285011
-1.10635626 -15.81591892 26.84347153
-1.05949843 -15.83772373 26.84952354
-1.0285567 -15.8719511 26.85926819
-1.04766083 -15.84817123 26.88129234
-1.00856936 -15.92222977 26.81971359
-1.02018571 -15.88484669 26.87991524
-0.61947656 -16.34160805 26.95894814
-0.56341928 -16.34854126 26.87670898
-0.72660685 -16.2950058 27.04126549
-0.63479847 -16.27232742 26.9766674
-0.5785597 -16.28912735 26.8886776
-0.8446508 -16.10782242 27.07556725
-0.91920274 -16.02278328 27.07455635
-0.79838657 -16.17453384 27.0197506
-0.76421797 -16.18087387 27.04752159
-0.81713355 -16.12783623 27.09787369
-0.90519291 -16.02211761 27.10222435
-0.83091527 -16.19445038 27.09420776
-0.92490941 -16.06362724 27.10650635
-0.72440994 -16.21681404 27.05368423
-1.00109661 -15.92621803 27.06688881
-1.0402056 -15.8305788 26.99753761
-0.98081225 -15.91638184 27.05971718
-0.82650167 -16.25954437 26.73728561
-0.97041047 -16.30720329 26.63423729
-0.71657395 -16.29439354 26.79351616
-0.71366549 -16.23757553 26.80951118
-0.81224221 -16.18998909 26.77310181
-0.81460744 -16.16953278 26.81221008
-0.72161591 -16.21609497 26.83041
-0.73349178 -16.20258141 26.84840012
-0.61233026 -16.33009338 26.82400513
-0.62173849 -16.27917099 26.83560944
-0.62876177 -16.21519279 26.90390778
-0.59398293 -16.25848198 26.87566376
-0.67850941 -16.2258873 26.92983627
-0.62673241 -16.14129257 26.88955307
-0.61182737 -16.19696426 26.88347054
-0.61137503 -16.23150635 26.87364197
-0.66104597 -16.18439102 26.86691666
-0.65136147 -16.2285099 26.86169243
-0.63650388 -16.25271034 26.84971428
-1.04405165 -15.83675385 26.94705009
-1.0456264 -15.83736992 26.91545868
-1.02212584 -15.86888123 26.98955154
-1.02726257 -15.86746597 26.89875412
-1.25981307 -15.31332397 26.86646461
-1.25865591 -15.13807106 26.80003548
-1.26390028 -15.28101063 26.96811867
-1.21077704 -14.91146755 26.73624802
-1.06293368 -16.33006477 26.51283264
-1.06976032 -16.40579796 26.41360855
-1.08970582 -16.46879005 26.29756546
-0.97943527 -15.93701363 27.03896904
-0.72773141 -16.21587181 26.96286392
-0.69321728 -16.23220444 26.96600533
-0.6863417 -16.23070145 26.99593353
-0.22409292 -19.48159981 26.32462883
-0.26200268 -19.47075081 26.22838211
-0.1778184 -19.55412102 26.27184868
-0.15453731 -19.46697235 26.42472649
-0.20688744 -19.4215126 26.43556786
-0.24733984 -19.40559006 26.37427711
-0.27092007 -19.38136864 26.31376457
-0.2591148 -19.33221436 26.41590881
-0.27467629 -19.30637741 26.37899208
-0.24066406 -19.37037277 26.44583321
-0.25770012 -19.30979919 26.46100807
-0.42715916 -18.77940941 26.50896835
-0.35405189 -18.85239029 26.61133385
-0.47020552 -18.81114769 26.38028717
-0.4301689 -18.86384392 26.41622353
-0.40108126 -18.83959198 26.50883102
-0.37989736 -18.87498474 26.50227165
-0.34626222 -18.92298317 26.55333328
-0.35046351 -18.89736176 26.58171272
-0.39748371 -18.89304733 26.43826103
-0.36502954 -18.89997101 26.4578495
-3.65942144 -2.86973333 11.74632359
-3.56448889 -2.51860714 11.96250153
-3.11532712 -3.09023809 10.85709381
-3.81407619 -3.14701128 11.60311604
-4.3750906 -3.24020243 12.45506477
-4.22283554 -2.95549822 12.73829651
-2.86097646 -3.86357021 10.45712376
-2.77574968 -4.88735533 10.31195545
-2.99102068 -4.00614548 10.57381153
-3.27769518 -3.32972288 10.87638855
-4.94750404 -5.51659727 14.94868374
-4.43804216 -5.41576385 15.46399784
-4.88179731 -4.48884773 14.96756458
-5.2359457 -4.62601423 14.45380306
-5.35493088 -5.57612085 14.39836216
-4.91974115 -6.63517189 14.66781998
-4.37797737 -6.56234026 15.19682121
-0.93494278 -2.59577274 18.04778862
-0.31606719 -18.95161247 26.47411537
-0.26935515 -18.80741692 26.51716042
-0.35055286 -18.98017883 26.43045807
-0.29872292 -19.04101181 26.46010971
-0.27940908 -19.11574554 26.46018982
-0.24791084 -18.94067383 26.49993324
-0.32365739 -19.08621216 26.41713524
-0.29541832 -19.17592239 26.4179554
-0.23320699 -18.94793701 26.50888824
-0.26082453 -19.14068413 26.50627899
-0.23188387 -18.97016335 26.5200882
-0.22409709 -18.95635223 26.5165844
-0.27231815 -19.19193649 26.50366592
-0.29092807 -19.1133976 26.52679825
-0.27477416 -19.08276176 26.51908493
-0.29215243 -18.99954796 26.53346062
-0.2540791 -18.86154938 26.54039383
-0.31237862 -19.0160675 26.54082108
-0.30522928 -19.40825081 26.04350662
-0.3032276 -19.39643288 25.95440483
-0.22507545 -19.53304863 25.91978073
-0.22525825 -19.56369972 25.9993248
-0.230869 -19.58280563 26.10800171
-0.3116518 -19.40398788 26.12937355
-0.37472564 -19.22033119 26.08532333
-0.3682439 -19.23987389 25.98657417
-0.44987375 -19.02218056 26.12332535
-0.43497145 -19.08485222 26.00728416
-0.38087329 -19.19731712 26.17483902
-0.45860788 -18.96774292 26.22833443
-0.31608438 -19.39523697 25.79875946
-0.32366407 -19.38897896 25.66689873
-0.24887943 -19.51325607 25.65912628
-0.37651804 -19.25096703 25.82047653
-0.37826416 -19.24948502 25.67729759
-0.43706596 -19.10910606 25.8362999
-0.43270934 -19.10962105 25.69272804
-0.39845219 -19.10477638 25.65615082
-0.36379021 -19.09383774 25.65475273
-0.32327026 -19.21516037 25.63365364
-0.35219541 -19.23491478 25.63860703
-0.40592331 -18.94313812 25.67879868
-0.21896549 -19.3247776 26.50614929
-0.25352806 -19.28443718 26.50623512
-0.16437982 -19.36050987 26.50322723
-0.19833513 -19.21349525 26.55991936
-0.2516059 -19.18841743 26.5606308
-0.29608423 -19.00990295 26.61135864
-0.31061932 -19.01920509 26.58807373
-0.27911815 -19.16239929 26.55522346
-0.24738663 -19.00504112 26.62704086
-0.27059901 -19.24003792 26.50397873
-0.29230028 -19.13876724 26.53985023
-0.3172923 -19.02199745 26.56101227
-0.30421799 -19.23141098 26.36099815
-0.30877098 -19.28896904 26.29175949
-0.34100586 -19.12189865 26.36304283
-0.35542583 -19.15067101 26.30064583
-0.37830716 -18.99224663 26.3903141
-0.40542111 -18.98829842 26.34443283
-0.31204057 -19.35536575 26.21302032
-0.37157685 -19.17492676 26.23985672
-0.43798798 -18.96831894 26.29218483
-0.91387236 -16.1463089 27.40606499
-0.81270534 -16.26102066 27.40054321
-0.75604188 -16.10341454 27.49941826
-0.68730265 -16.40891647 27.36307907
-0.58349866 -16.36332703 27.41172791
-3.97007942 -3.27675772 11.41862774
-3.42822719 -3.41461134 10.84195042
-4.10711193 -3.30115891 11.19969177
-4.68342304 -3.49843884 11.74968338
-4.54169846 -3.4165926 12.12138939
-2.95159698 -5.80337238 10.40700054
