4.5373 12.5181 -0.2137
4.5988 12.5552 -0.2184
4.6088 12.701 -0.2455
4.6604 12.5864 -0.2491
4.6759 12.7286 -0.3018
4.7204 12.6137 -0.3054
4.5606 12.8186 -0.2452
4.6354 12.8472 -0.2999
4.8249 12.5277 -0.3783
4.7781 12.6384 -0.3821
4.7696 12.5022 -0.3076
4.8763 12.5476 -0.4656
4.83 12.6583 -0.4759
4.7373 12.7521 -0.3821
4.7893 12.7707 -0.4814
4.8781 12.4192 -0.3685
4.7147 12.4746 -0.2542
4.9368 12.3109 -0.3532
4.9839 12.3264 -0.4294
4.928 12.4376 -0.4495
5.0196 12.33 -0.5208
4.9665 12.4443 -0.5453
5.076 12.2137 -0.4963
4.9896 12.4384 -0.6491
4.9954 12.4203 -0.7538
4.9472 12.537 -0.7836
4.9408 12.5539 -0.6753
4.8939 12.6684 -0.6973
4.8996 12.6528 -0.8103
4.9367 12.508 -0.8852
4.8885 12.6236 -0.9159
4.816 12.6979 -1.0412
4.8403 12.7379 -0.9431
4.8644 12.584 -1.01
4.913 12.4697 -0.9758
4.8526 12.7667 -0.833
4.8489 12.7814 -0.7145
4.8276 12.7817 -0.5946
4.8701 12.6695 -0.5833
4.8062 12.8931 -0.7277
4.7886 12.8945 -0.6028
4.8066 12.8786 -0.8511
4.9165 12.5572 -0.5669
2.1473 1.4567 -0.8939
2.112 1.4512 -0.9528
2.125 1.6113 -0.9002
2.0932 1.6028 -0.9646
2.1497 1.6203 -0.8392
2.1709 1.4632 -0.8344
2.1783 1.4693 -0.772
2.1618 1.6283 -0.7771
2.158 1.6345 -0.7128
2.1685 1.4753 -0.7079
2.1419 1.7869 -0.722
2.1225 1.7913 -0.6549
2.1086 1.9366 -0.6619
2.0732 1.9373 -0.592
2.1257 1.9324 -0.7315
2.1133 2.0729 -0.7382
2.0949 2.0754 -0.6655
2.1277 1.9252 -0.8001
2.1167 2.0673 -0.8107
2.1445 1.7799 -0.7879
2.0587 2.0745 -0.5938
2.0865 2.2117 -0.6664
2.0512 2.2093 -0.5929
2.1059 2.2113 -0.7419
2.1337 1.7707 -0.8527
2.112 1.7603 -0.9181
2.1199 1.9161 -0.869
2.1115 2.0594 -0.8834
2.109 2.2018 -0.8931
2.1118 2.2078 -0.8177
2.0978 2.05 -0.9562
2.0974 2.194 -0.9671
2.1133 2.3435 -0.8978
2.1142 2.3476 -0.82
2.1032 2.3375 -0.9733
2.103 1.9057 -0.9391
2.0788 1.8952 -1.0113
2.0753 2.0404 -1.0281
2.0845 1.7501 -0.9879
2.0544 1.7417 -1.061
2.0489 1.8865 -1.0825
2.021 1.7363 -1.1291
2.0132 1.8809 -1.1454
2.0447 2.0323 -1.0955
2.0076 2.027 -1.1538
5.6035 9.7411 -0.3096
5.5924 9.7371 -0.3465
5.6183 9.6279 -0.3027
5.6088 9.6246 -0.3383
5.6245 9.7462 -0.2781
5.6041 9.8508 -0.2772
5.6523 9.752 -0.253
5.6331 9.8587 -0.2488
5.671 9.8668 -0.2332
5.6854 9.7578 -0.235
5.723 9.7629 -0.2262
5.7618 9.7667 -0.2335
5.7662 9.6459 -0.2345
5.7313 9.6436 -0.2262
5.7358 9.5287 -0.2317
5.7681 9.5299 -0.237
5.7665 9.4319 -0.2341
5.7354 9.431 -0.2299
5.7035 9.5265 -0.2352
5.7043 9.4282 -0.2344
5.6962 9.6403 -0.2329
5.7997 9.5309 -0.2496
5.8114 9.4345 -0.2785
5.7946 9.4332 -0.25
5.6649 9.6362 -0.2499
5.6776 9.5242 -0.2536
5.6386 9.6319 -0.2732
5.6598 9.5217 -0.2784
5.6488 9.5199 -0.3057
5.6458 9.5189 -0.3345
5.6344 9.4203 -0.3354
5.6391 9.4211 -0.3022
5.6504 9.3407 -0.3367
5.6543 9.3415 -0.306
5.6748 9.2804 -0.3102
5.6862 9.2819 -0.2861
5.6679 9.3435 -0.2789
5.719 9.2397 -0.2785
5.7024 9.2841 -0.265
5.7041 9.2395 -0.2973
5.6925 9.2417 -0.318
5.6855 9.2487 -0.3353
5.6708 9.28 -0.3365
5.7364 9.2089 -0.2941
5.7216 9.2099 -0.3127
5.7507 9.2144 -0.2767
5.7363 9.2424 -0.2616
5.7228 9.287 -0.2476
5.7552 9.1931 -0.3104
5.7414 9.1951 -0.3305
5.7078 9.2181 -0.3335
5.7251 9.2052 -0.3528
5.6872 9.3462 -0.2566
5.7118 9.3497 -0.2412
5.6761 9.4256 -0.2488
5.6543 9.4229 -0.2729
5.7399 9.3537 -0.2355
5.7491 9.2919 -0.2412
5.6392 9.4206 -0.3688
5.6552 9.3413 -0.3678
5.6508 9.5187 -0.3627
5.6143 9.6234 -0.3747
5.5943 9.7353 -0.3859
5.662 9.5192 -0.3898
5.6523 9.4218 -0.4004
5.6682 9.3428 -0.3969
5.6747 9.2788 -0.3638
5.6851 9.2782 -0.3902
5.7043 9.2329 -0.375
5.6925 9.2391 -0.3524
5.7029 9.2791 -0.414
5.7207 9.2314 -0.3964
5.6876 9.3447 -0.4223
5.7129 9.3472 -0.4422
5.7536 9.2863 -0.443
5.7259 9.282 -0.4324
5.7433 9.3508 -0.4519
5.7635 9.2376 -0.4276
5.7397 9.2332 -0.4145
5.7817 9.2941 -0.4351
5.7745 9.3556 -0.4458
5.7987 9.3602 -0.4264
5.8091 9.3007 -0.4216
5.8159 9.3636 -0.4012
5.8229 9.3059 -0.3946
5.8164 9.2486 -0.4141
5.7896 9.2465 -0.4253
5.7922 9.2186 -0.4109
5.7759 9.2081 -0.4047
5.7568 9.2027 -0.3892
5.7928 9.1958 -0.3806
5.775 9.1909 -0.364
5.8103 9.2104 -0.3978
5.7408 9.2021 -0.3716
5.8297 9.2532 -0.387
5.8352 9.2059 -0.3793
5.8411 9.2166 -0.3492
5.8332 9.2574 -0.3583
5.8274 9.3084 -0.3649
5.822 9.3653 -0.3706
5.8259 9.4356 -0.3425
5.8218 9.3659 -0.3392
5.824 9.4358 -0.3755
5.8219 9.4351 -0.3094
5.8174 9.3656 -0.3091
5.8083 9.3644 -0.2812
5.8281 9.3092 -0.3354
5.8339 9.2586 -0.332
5.8252 9.3087 -0.3075
5.8307 9.2571 -0.3072
5.819 9.4351 -0.4088
5.8382 9.5306 -0.3831
5.8191 9.5305 -0.413
2.0329 10.0114 0.2251
2.0416 10.0202 0.082
2.0362 10.0217 -0.0677
2.0675 9.898 0.0957
2.0641 9.8994 -0.0541
2.0887 9.7807 -0.0452
2.0896 9.7788 0.1049
2.0464 9.8896 -0.2094
2.0727 9.7725 -0.2007
2.0965 9.66 -0.1964
2.0642 9.6432 -0.3525
2.1114 9.6665 -0.0411
2.1098 9.6638 0.1096
2.1319 9.5565 -0.0407
2.1285 9.5528 0.1102
2.0938 9.6548 0.2547
2.1106 9.543 0.2565
2.0761 9.7705 0.2488
2.1181 9.5518 -0.195
2.0855 9.5378 -0.3481
2.0175 9.6187 -0.5032
2.0378 9.5165 -0.4952
1.9737 9.4888 -0.6305
2.1371 9.4469 -0.195
2.1054 9.4356 -0.3453
2.1514 9.4502 -0.0424
2.1551 9.345 -0.1959
2.1237 9.3357 -0.3432
2.1694 9.3469 -0.0453
2.0558 9.8898 0.2387
2.0315 9.8784 0.3749
2.0493 9.7589 0.3852
1.9954 9.8651 0.5035
2.0108 9.7452 0.514
1.9441 9.8489 0.623
1.9561 9.7288 0.6328
1.875 9.8286 0.7302
1.8841 9.7089 0.7394
1.864 9.9484 0.7192
1.7813 9.9229 0.8145
1.7892 9.8038 0.8241
1.771 10.0411 0.804
1.8517 10.0676 0.707
1.7953 9.6848 0.8323
1.7998 9.5678 0.8389
1.6921 9.6569 0.9103
1.6942 9.5409 0.9158
1.6888 9.7748 0.9034
1.8914 9.5914 0.7465
2.0247 9.6283 0.5217
1.9665 9.6115 0.6401
2.0655 9.6426 0.3923
1.9756 9.4974 0.6452
1.8975 9.4771 0.7517
2.0368 9.5148 0.5263
1.758 10.158 0.7936
1.6637 10.126 0.8774
1.6753 10.0099 0.8866
1.5581 10.0906 0.9459
1.6835 9.8927 0.8954
1.5454 10.205 0.9366
1.4344 10.1672 0.9898
1.4211 10.2801 0.9773
1.2958 10.3522 0.9983
1.4035 10.3916 0.9613
1.3809 10.501 0.9428
1.2771 10.4598 0.9786
1.1751 10.4228 1.0064
1.1879 10.3172 1.0252
1.0768 10.3955 1.0265
0.9907 10.4753 1.0215
1.3526 10.6077 0.9245
1.4545 10.651 0.8803
1.5533 10.6904 0.8223
1.4189 10.7571 0.8667
1.5775 9.6262 0.9728
1.577 9.5116 0.9767
1.6942 9.4277 0.92
1.5737 9.3999 0.9796
1.6921 9.3176 0.9228
1.5685 9.2909 0.9811
1.6886 9.2103 0.9235
1.5627 9.1847 0.9809
1.8044 9.2348 0.8483
1.8048 9.3428 0.8472
1.6849 9.1056 0.9218
1.803 9.1295 0.847
1.9078 9.1522 0.7544
1.9061 9.2577 0.756
1.9097 9.0491 0.7519
2.0008 9.0705 0.6422
1.9963 9.1733 0.6458
2.0811 8.9907 0.5116
2.074 9.0907 0.5173
2.0056 8.9699 0.6378
2.0881 8.8924 0.5055
2.0106 8.8711 0.6325
1.9122 8.9481 0.7483
1.9157 8.849 0.7436
2.1293 9.1091 0.3818
2.1183 9.2105 0.3877
2.0666 9.1928 0.5228
2.1398 9.0097 0.3757
1.8025 9.0266 0.8448
1.8033 8.9257 0.8415
1.8058 8.8266 0.8369
1.6821 8.9029 0.9156
1.6837 8.8041 0.9107
1.6826 9.0033 0.9192
1.5571 9.0811 0.978
1.553 8.9795 0.9742
1.9912 9.2785 0.6482
1.9029 9.3659 0.7551
1.9839 9.3864 0.6479
1.8033 9.4538 0.8438
1.4376 9.2642 1.0222
1.4297 9.1591 1.0203
1.4449 9.3716 1.0227
1.4507 9.4817 1.0219
1.3186 9.4533 1.0524
1.3115 9.345 1.0505
1.4537 9.5944 1.0201
1.3027 9.2389 1.0473
1.2935 9.1347 1.0426
1.4224 9.0563 1.0157
1.2849 9.0324 1.036
1.1601 9.1132 1.0504
1.1505 9.0109 1.0411
1.1697 9.2168 1.0583
2.0801 9.5299 0.396
2.1262 9.4346 0.2548
2.0941 9.4206 0.396
2.1067 9.3142 0.3929
2.0477 9.4045 0.5281
2.058 9.2972 0.5271
2.1564 9.2262 0.2461
2.1413 9.329 0.251
2.1808 9.2389 0.0999
2.1643 9.3408 0.1047
2.1465 9.4452 0.1083
2.1859 9.2458 -0.049
2.1961 9.1389 0.0945
2.2011 9.1464 -0.0529
2.2091 9.0404 0.089
2.1705 9.1256 0.2404
2.183 9.0267 0.2342
2.2256 8.9509 -0.0593
2.2136 9.0481 -0.0564
2.2188 8.9424 0.084
2.194 8.9291 0.228
2.1718 9.2453 -0.1971
2.1404 9.2375 -0.3412
2.1869 9.1468 -0.1983
2.1554 9.1402 -0.3389
1.1269 9.977 -1.2878
1.0026 9.9154 -1.2691
1.0428 9.8449 -1.2436
0.916 9.797 -1.2063
1.0787 9.7732 -1.2201
1.1692 9.9023 -1.2583
1.2066 9.8269 -1.2304
1.3305 9.8878 -1.2162
1.8968 9.4572 -0.752
1.8086 9.4225 -0.8581
1.915 9.3631 -0.7402
1.8268 9.3311 -0.8448
1.992 9.392 -0.6207
2.0099 9.2968 -0.612
1.9331 9.2702 -0.7291
2.0569 9.4169 -0.4887
2.0747 9.3192 -0.483
2.0915 9.2227 -0.4777
2.0277 9.2025 -0.6041
1.9514 9.178 -0.719
1.9698 9.0864 -0.7098
2.0452 9.109 -0.5967
1.8642 9.1504 -0.8213
1.8453 9.2405 -0.8325
1.7666 9.1205 -0.9092
1.7475 9.2087 -0.9213
1.6586 9.0891 -0.9801
1.6393 9.1756 -0.9926
1.7285 9.2971 -0.934
1.6205 9.2617 -1.0062
1.7858 9.0321 -0.8978
1.8834 9.0605 -0.8111
2.0629 9.0162 -0.5902
1.9885 8.995 -0.7018
2.0072 8.9035 -0.6944
2.0806 8.9234 -0.5843
1.9027 8.9705 -0.8018
1.9216 8.88 -0.7929
2.0255 8.8116 -0.6874
2.0979 8.8306 -0.5787
2.1403 8.9389 -0.4639
2.1564 8.845 -0.4601
2.1239 9.0329 -0.4679
2.1075 9.1273 -0.4724
2.1705 9.0444 -0.3369
4.5383 13.3646 -0.438
4.5949 13.3712 -0.5387
4.6437 13.2474 -0.5155
4.5878 13.2397 -0.4125
4.6842 13.1241 -0.4993
4.6299 13.1141 -0.3947
4.7193 13.0033 -0.4897
4.6665 12.9901 -0.3849
4.701 12.8692 -0.3817
4.7532 12.8855 -0.4849
4.7522 13.0087 -0.6104
4.7157 13.1253 -0.6203
4.7656 13.0048 -0.7385
4.7258 13.1175 -0.7494
4.6753 13.2443 -0.635
4.684 13.2318 -0.763
4.7619 12.9892 -0.8656
4.718 13.0992 -0.8781
4.6271 13.3646 -0.6558
4.5691 13.4837 -0.6829
4.6359 13.3471 -0.7816
4.579 13.4614 -0.8063
4.6238 13.3198 -0.9086
4.5678 13.4286 -0.9314
4.5058 13.5353 -0.9606
4.4774 13.4898 -1.0789
4.4406 13.6397 -0.995
4.4134 13.5913 -1.1118
4.3482 13.6931 -1.1457
4.2836 13.7976 -1.1749
4.2202 13.9054 -1.1944
4.1783 13.8611 -1.2984
4.2415 13.7494 -1.2795
4.3061 13.6426 -1.2516
4.3716 13.5403 -1.2192
4.3243 13.4904 -1.3172
4.4364 13.4402 -1.1877
4.446 13.6799 -0.8733
4.5146 13.5729 -0.8374
4.6732 13.2096 -0.8915
4.6968 13.0695 -0.9993
4.7447 12.9607 -0.9843
4.7176 12.9211 -1.0905
4.7924 12.8502 -0.966
4.7672 12.8105 -1.0682
3.8452 12.5161 -0.6412
3.8485 12.5121 -0.7722
3.7564 12.6064 -0.7886
3.8693 12.5208 -0.8925
3.7823 12.619 -0.9118
3.8993 12.5315 -1.002
3.2851 13.3698 -0.8324
3.9391 14.2226 -0.4921
3.8896 14.3254 -0.4454
3.8533 14.2645 -0.3619
3.7949 14.3774 -0.3075
3.8336 14.4361 -0.4009
3.8057 14.2066 -0.3001
3.742 14.3213 -0.2394
3.6796 14.2661 -0.195
3.7292 14.4989 -0.2643
3.671 14.4439 -0.1886
3.7714 14.5524 -0.3667
3.8598 14.4972 -0.5143
3.7979 14.6057 -0.4901
3.6595 14.6222 -0.2345
3.7074 14.6697 -0.3448
3.5961 14.5684 -0.1497
3.5932 14.742 -0.2141
3.5238 14.6896 -0.1203
3.6477 14.7847 -0.3318
3.6025 14.387 -0.1379
3.5212 14.5083 -0.091
3.7371 14.7135 -0.4764
3.6816 14.8203 -0.4694
3.875 14.555 -0.6455
3.9197 14.3894 -0.5466
3.942 14.4515 -0.6665
3.9745 14.2832 -0.5805
4.0036 14.3407 -0.6907
4.1251 14.1525 -0.8374
4.1318 14.1688 -0.96
4.1846 14.0515 -1.086
4.1265 14.1626 -1.085
4.16 14.0174 -1.2034
4.1175 13.9776 -1.3082
4.0644 13.9411 -1.402
4.0031 13.9076 -1.486
3.607 14.2089 -0.1697
3.5239 14.3264 -0.1093
3.4355 14.4438 -0.0587
3.3391 14.3775 -0.0535
3.4321 14.2628 -0.1045
3.2469 14.4929 -0.0108
3.1366 14.4282 -0.035
3.1598 14.6096 0.0255
3.0449 14.5447 0.0012
3.0792 14.7276 0.0551
2.9575 14.6629 0.0306
3.004 14.8461 0.0764
2.8758 14.7817 0.0499
2.8415 14.613 -0.0406
2.7663 14.7384 -0.036
2.9297 14.4913 -0.0612
3.0245 14.3754 -0.0964
2.6782 14.7106 -0.1438
2.7488 14.5864 -0.1469
2.8076 14.9029 0.043
2.7036 14.8574 -0.0458
2.9338 14.9622 0.0887
2.8681 15.0734 0.0807
2.7499 15.0139 0.0213
3.0599 15.0299 0.0707
2.9959 15.1384 0.0728
3.1256 14.9149 0.0619
2.646 14.9661 -0.0598
2.692 15.1154 0.0022
2.5894 15.0658 -0.0725
2.5591 14.9308 -0.1573
2.6176 14.8257 -0.1498
2.5034 15.0275 -0.1651
3.1939 14.7966 0.0443
3.2675 14.6779 0.0177
3.3485 14.5605 -0.0167
3.4417 14.6279 -0.0532
3.3683 14.746 -0.0231
3.4583 14.8078 -0.0969
3.3013 14.8644 -0.0014
3.2383 14.9816 0.0113
3.398 14.925 -0.0806
3.3393 15.0409 -0.0722
0.858 19.9758 -0.1282
0.7281 20.2496 -0.468
0.6511 20.3161 -0.54
0.637 20.3877 -0.4457
0.711 20.3235 -0.3831
0.6218 20.444 -0.3446
0.6885 20.3848 -0.2978
0.7381 20.3337 -0.2265
0.6671 20.4229 -0.2319
0.6913 20.4014 -0.1616
0.6245 20.4699 -0.1255
0.6443 20.4401 -0.0155
0.5549 20.5096 0.0134
0.567 20.4664 0.1338
0.4633 20.527 0.1594
0.4554 20.5676 0.0274
0.6145 20.4729 -0.2369
1.8429 15.6865 0.481
1.8707 15.6026 0.4253
1.8064 15.6073 0.5466
1.8352 15.5284 0.4922
1.7629 15.5315 0.6101
1.7939 15.4576 0.5584
1.7117 15.4596 0.6708
1.744 15.3904 0.6219
1.6863 15.3264 0.6821
1.6537 15.3911 0.7282
1.6259 15.2647 0.7379
1.5956 15.325 0.7824
1.5387 15.2606 0.8311
1.5683 15.204 0.788
1.5516 15.3841 0.8202
1.4962 15.3182 0.8681
1.606 15.4528 0.7678
1.5472 15.5089 0.8005
1.6591 15.5248 0.7122
1.5946 15.583 0.7474
1.709 15.6009 0.6547
1.4393 15.2545 0.9093
1.4827 15.1979 0.872
1.514 15.1452 0.83
1.5817 15.1516 0.7416
1.5292 15.0984 0.7878
1.5797 15.1046 0.6941
1.6232 15.1095 0.5897
1.636 15.1559 0.6388
1.5679 15.0594 0.6466
1.6391 15.2071 0.689
1.4957 15.0457 0.8387
1.4643 15.0152 0.8654
1.6984 15.2639 0.6309
1.8022 15.3866 0.5036
1.7538 15.3238 0.5688
1.8431 15.4534 0.4365
1.8797 15.5228 0.3692
1.7958 15.3234 0.4504
1.8383 15.3857 0.383
1.8279 15.3253 0.3335
1.7841 15.2668 0.401
1.8764 15.4504 0.3153
1.8669 15.3863 0.2655
1.7729 15.2146 0.3562
1.8171 15.2709 0.2888
1.7349 15.2117 0.4668
1.7234 15.1615 0.422
1.7473 15.2647 0.5161
1.693 15.2092 0.579
1.9118 15.5155 0.2488
1.9025 15.4474 0.1979
2.6316 15.4464 0.002
2.6888 15.3609 0.0148
2.8055 15.4275 0.026
2.5795 15.2993 -0.0269
2.6349 15.2101 -0.0137
2.7478 15.2702 0.0317
2.8081 15.1746 0.0531
2.8678 15.3357 0.0464
2.9233 15.4972 0.0049
3.0292 15.5518 -0.0894
2.9867 15.4017 0.0137
3.0906 15.46 -0.0819
3.0496 15.3027 0.0161
3.154 15.3624 -0.0758
3.1128 15.2016 0.0172
2.9328 15.2401 0.0719
3.2174 15.2604 -0.0718
3.176 15.0949 0.0166
3.2795 15.1533 -0.0701
3.1782 15.505 -0.2063
3.1187 15.5913 -0.2134
3.2419 15.4106 -0.1974
3.3061 15.3091 -0.1896
3.3738 15.3397 -0.3262
2.5349 15.1584 -0.0838
2.483 15.2451 -0.0938
2.4353 15.0014 -0.27
2.4899 14.9085 -0.2661
2.5484 14.8074 -0.2632
2.6091 14.6969 -0.2621
2.6764 14.5772 -0.2668
2.6226 14.5817 -0.3925
2.5565 14.696 -0.385
2.5828 14.596 -0.5183
2.5537 14.6177 -0.64
2.533 14.6434 -0.7548
2.6077 14.5346 -0.7674
2.6249 14.5063 -0.6554
2.684 14.4252 -0.7835
2.6964 14.395 -0.6738
2.6765 14.4531 -0.8782
2.5944 14.5613 -0.8693
2.5162 14.6692 -0.8636
2.6528 14.4817 -0.5332
2.4952 14.8017 -0.3821
5.6395 9.881 0.1116
5.625 9.7638 0.1312
5.6448 9.6438 0.1282
5.6206 9.651 0.159
5.6124 9.5501 0.1824
5.6302 9.5425 0.1475
5.5887 9.4728 0.1771
5.6068 9.4677 0.1521
5.5814 9.5574 0.207
5.5658 9.4762 0.197
5.5433 9.5609 0.2116
5.5397 9.4776 0.2131
5.5713 9.4141 0.2073
5.5912 9.4121 0.1868
5.5786 9.363 0.2156
5.5964 9.3608 0.1956
5.578 9.3231 0.2184
5.5973 9.3169 0.2018
5.6108 9.3123 0.1825
5.6096 9.3568 0.1732
5.6056 9.408 0.1626
5.5646 9.2983 0.2058
5.5866 9.2861 0.1974
5.5431 9.3198 0.2159
5.559 9.3316 0.2244
5.5541 9.3621 0.2256
5.5444 9.4129 0.2182
5.5264 9.3562 0.2234
5.5139 9.4093 0.221
5.5076 9.4761 0.2094
5.5511 9.6595 0.1843
5.5156 9.6584 0.1741
5.5076 9.56 0.1985
5.5566 9.7719 0.1637
5.5162 9.773 0.1649
5.4847 9.6553 0.1549
5.475 9.5567 0.1796
5.4467 9.5506 0.1537
5.5895 9.6576 0.1823
5.5928 9.7684 0.1508
5.6058 9.8859 0.1352
5.6164 9.4025 0.1368
5.6188 9.4617 0.1231
5.6223 9.3963 0.109
5.6234 9.4553 0.0912
5.6405 9.5358 0.1106
5.6632 9.6363 0.0923
5.6244 9.3359 0.0993
5.6243 9.344 0.1257
5.6254 9.2965 0.1389
5.6227 9.2896 0.1125
5.5934 9.2741 0.1215
5.5994 9.2722 0.1471
5.6202 9.3058 0.1618
5.6034 9.275 0.1707
5.6192 9.3514 0.15
5.6111 9.2926 0.0925
5.6136 9.3262 0.0746
5.5523 9.3655 0.0251
5.5179 9.3661 0.0333
5.5081 9.4342 0.0109
5.4967 9.3286 0.0774
5.4875 9.3715 0.0515
5.5261 9.3165 0.063
5.5024 9.3073 0.1111
5.5307 9.2904 0.1009
5.5359 9.2841 0.1347
5.5069 9.3017 0.1443
5.5419 9.2837 0.162
5.5139 9.3039 0.1728
5.5514 9.2882 0.1853
5.526 9.3093 0.1972
5.4877 9.3421 0.18
5.5039 9.349 0.2046
5.4663 9.3954 0.1782
5.4874 9.4029 0.2029
5.4778 9.3361 0.1507
5.4749 9.3366 0.1168
5.4537 9.3879 0.1467
5.4533 9.3821 0.1114
5.4781 9.4718 0.1921
5.4527 9.4651 0.1675
5.5762 9.2795 0.1753
5.5696 9.276 0.153
5.5638 9.2755 0.1272
5.6035 9.2857 0.1866
5.5589 9.2825 0.0929
5.5576 9.3133 0.0549
5.5887 9.3172 0.0594
5.588 9.2833 0.0938
5.4777 9.3434 0.0908
5.4647 9.3774 0.0783
5.4495 9.4412 0.0595
5.4745 9.4367 0.0292
5.4428 9.5267 0.04
5.4674 9.5206 0.0078
5.503 9.5172 -0.0115
5.4309 9.5343 0.0783
5.437 9.4568 0.1343
5.4303 9.5426 0.1181
5.4362 9.4484 0.0962
4.8784 10.1843 0.4444
4.9022 10.2015 0.4737
4.9339 10.2163 0.4964
4.934 10.3262 0.4518
4.9442 10.1145 0.5161
4.9839 10.0493 0.5443
4.9517 10.0396 0.5381
4.9128 10.1011 0.5007
4.9233 10.0251 0.5261
4.8837 10.0846 0.4803
4.9015 10.0055 0.5079
4.8657 10.0639 0.449
4.8914 9.9829 0.4838
4.8655 10.0427 0.412
4.8812 9.9592 0.4578
4.8878 9.9358 0.4277
4.9129 9.9182 0.4008
4.9053 9.9007 0.5044
4.9085 9.8737 0.4832
4.9295 9.8546 0.4588
4.9018 9.925 0.5248
4.9087 9.9494 0.5434
4.9318 9.8713 0.5419
4.9162 9.8925 0.5589
4.9188 9.9178 0.5647
4.9311 9.9673 0.5565
4.9575 9.9816 0.5654
4.962 9.9306 0.5899
4.9374 9.9212 0.5795
4.9369 9.8827 0.5888
4.9648 9.8855 0.6073
4.9866 9.991 0.5706
4.9882 9.939 0.5947
5.0149 9.9452 0.5954
5.017 9.9965 0.572
5.0178 10.0547 0.5465
4.9497 9.9088 0.3839
4.9627 9.8505 0.4357
5.017 9.8455 0.44
4.9898 9.8291 0.4755
4.9907 9.8575 0.4213
5.0174 9.8295 0.5032
4.9918 9.8349 0.5305
4.9628 9.8343 0.5038
4.9432 9.8502 0.5247
4.9734 9.8491 0.5506
4.9579 9.8633 0.5699
4.9965 9.8522 0.5711
4.9783 9.8583 0.5946
4.9903 9.8936 0.6148
4.9983 9.8595 0.6156
5.0194 9.8724 0.6246
5.0141 9.9019 0.6162
5.0366 9.9061 0.6146
5.0409 9.9467 0.5936
5.058 9.9001 0.6141
5.066 9.942 0.5912
5.0351 9.8821 0.6235
5.0501 9.8696 0.6206
5.0156 9.856 0.5892
5.033 9.8588 0.6071
5.0494 9.8594 0.5829
5.0343 9.8478 0.5673
5.0152 9.8395 0.5502
5.0772 9.8573 0.559
5.0612 9.8444 0.5406
5.0411 9.8354 0.5223
5.0648 9.8678 0.5995
5.0472 9.8437 0.4597
5.0741 9.8501 0.4779
5.0969 9.8613 0.4987
5.1139 9.8774 0.5226
5.1391 9.9331 0.4753
5.1231 9.9175 0.4446
5.097 9.9069 0.4187
5.0651 9.9005 0.3986
5.0287 9.8987 0.3838
4.9893 9.9028 0.3781
5.047 9.9979 0.5698
5.0765 9.9941 0.5648
5.1059 9.9859 0.5551
5.1261 9.9704 0.533
5.1402 9.952 0.5068
5.1163 9.8982 0.5472
5.084 9.8723 0.5779
5.0805 9.8923 0.609
5.0944 9.8888 0.5909
5.1103 9.9186 0.5693
5.0923 9.9335 0.5863
1.6803 15.16 0.5298
1.6689 15.1113 0.4849
1.6642 15.0599 0.445
1.7173 15.1111 0.3815
1.7176 15.0585 0.3441
1.7238 15.0027 0.3076
1.667 15.0051 0.4091
1.6757 14.9458 0.3744
1.6253 14.8871 0.4391
1.6396 14.8175 0.4042
1.6883 14.881 0.3375
1.6558 14.7404 0.3643
1.7034 14.8102 0.2965
1.7202 14.7341 0.2505
1.7636 14.8067 0.1813
1.748 14.8769 0.2277
1.6019 14.669 0.43
1.5406 14.6013 0.4984
1.5854 14.7519 0.4677
1.7344 14.9422 0.2694
1.79 14.9428 0.1604
1.7776 15.0037 0.2021
1.5708 14.8264 0.5003
0.9831 15.9213 0.8548
1.7121 17.1535 -0.1687
2.2701 17.1161 -0.5156
2.4676 0.0404 1.5286
0.8595 10.517 1.0095
0.9223 10.4885 1.0201
0.9976 10.5407 1.0099
1.6646 0.2646 1.78
1.7132 0.2526 1.7783
1.7019 0.2406 1.8434
1.6906 0.2287 1.8857
1.6972 0.1952 1.8898
1.6558 0.2319 1.8966
1.6076 0.2336 1.8979
1.5512 0.2398 1.8811
1.5776 0.2581 1.8467
1.6175 0.2592 1.8497
1.6607 0.2534 1.846
1.7092 0.1551 1.8973
2.0531 0.306 1.5711
2.0512 0.2419 1.6515
2.0701 0.2198 1.6439
2.0711 0.1838 1.7328
2.0853 0.1572 1.7243
2.0935 0.1288 1.7122
2.094 0.0991 1.7003
2.0609 0.2137 1.7415
2.0359 0.2362 1.7448
1.9964 0.2342 1.812
2.0017 0.2471 1.7409
1.9674 0.2361 1.7899
1.9368 0.2225 1.8046
1.9667 0.1964 1.8413
0.2935 8.9985 -0.1355
0.3104 8.9112 -0.1446
0.331 9.0035 -0.2913
0.3486 8.9184 -0.2988
0.4022 8.9263 -0.4461
0.3663 8.8344 -0.3072
0.4206 8.8438 -0.4528
0.3275 8.8255 -0.1549
0.3839 8.7519 -0.317
0.3444 8.7416 -0.1669
0.4013 8.6708 -0.3283
0.3611 8.6594 -0.1807
0.4186 8.591 -0.3411
0.3777 8.5787 -0.1962
0.394 8.4994 -0.2132
0.4355 8.5122 -0.3555
0.3674 8.4858 -0.068
0.3517 8.5657 -0.0482
0.4102 8.4211 -0.2311
0.3829 8.4073 -0.0885
0.4523 8.4342 -0.3709
0.3549 8.4711 0.0766
0.3404 8.5514 0.0993
0.336 8.6472 -0.0297
0.3259 8.6337 0.1208
0.4745 8.6031 -0.4802
0.4921 8.5247 -0.4921
0.4568 8.6823 -0.4697
0.4388 8.7625 -0.4606
0.5273 8.6943 -0.6023
0.5455 8.6154 -0.6107
0.5088 8.7739 -0.5953
0.5635 8.5371 -0.6203
0.5813 8.4591 -0.6309
0.5095 8.4467 -0.505
0.6493 8.5499 -0.7372
0.6676 8.4716 -0.7456
0.6309 8.6284 -0.7298
0.3201 8.7307 -0.0131
0.304 8.8162 0.0014
0.296 8.8051 0.1582
0.3034 8.7906 0.3103
0.3379 8.6851 0.4253
0.3174 8.7029 0.2888
0.3111 8.7181 0.1406
0.4901 8.8544 -0.5894
0.4712 8.9358 -0.5844
0.555 8.9474 -0.711
0.5743 8.8667 -0.7143
0.5935 8.7867 -0.7184
0.6724 8.8814 -0.8244
0.6919 8.8015 -0.8267
0.6528 8.9616 -0.8228
0.5734 8.9415 0.8961
0.6782 8.9509 0.9498
0.7888 8.963 0.9887
0.7759 8.8597 0.9675
0.8907 8.8739 0.9986
0.9032 8.9768 1.0157
0.8776 8.7743 0.9822
0.7614 8.7603 0.9473
0.7496 8.6657 0.9284
0.6556 8.7496 0.9005
0.6452 8.6558 0.8787
0.6679 8.8481 0.9243
0.569 8.8399 0.8677
0.5616 8.7426 0.8412
0.4807 8.7404 0.7677
0.5547 8.65 0.8168
0.4787 8.6492 0.7415
0.4779 8.5623 0.7172
0.5506 8.562 0.7947
0.4169 8.6542 0.6523
0.4214 8.5691 0.6258
0.8607 8.5885 0.9515
0.8668 8.6792 0.9663
0.7423 8.5756 0.9116
1.0027 8.7914 1.006
1.0123 8.8907 1.0199
1.1418 8.9102 1.0303
1.0231 8.9925 1.0334
1.2778 8.932 1.0277
1.2728 8.8331 1.0186
1.1351 8.8112 1.0187
0.9951 8.696 0.9923
0.9905 8.6041 0.9796
0.99 8.5154 0.9681
0.8595 8.5012 0.938
0.7408 8.4896 0.8961
1.1307 8.7151 1.0072
1.1286 8.622 0.9962
1.2708 8.7361 1.0093
1.2716 8.6416 0.9998
0.6388 8.5667 0.8593
0.6374 8.4817 0.8416
0.6418 8.4006 0.8239
0.7456 8.4075 0.8801
0.7535 8.3275 0.8648
0.6493 8.322 0.807
0.7646 8.249 0.8501
0.6601 8.2452 0.7905
0.5631 8.3206 0.7354
0.5749 8.2452 0.7164
0.5556 8.3981 0.7544
0.8642 8.4173 0.9242
0.8723 8.3356 0.9105
0.5505 8.478 0.7744
0.4802 8.4793 0.6945
0.4878 8.4008 0.6713
0.371 8.6672 0.5469
0.3801 8.5833 0.5193
0.4282 8.4879 0.5999
0.3892 8.5019 0.4926
0.4377 8.4098 0.5746
0.3992 8.4228 0.4668
0.448 8.3335 0.5507
0.4099 8.3457 0.4419
0.4977 8.3247 0.6491
0.5094 8.2498 0.6281
0.4593 8.2583 0.5284
0.4715 8.1839 0.5076
0.4215 8.27 0.4183
0.4339 8.1951 0.3963
0.3958 8.2841 0.2979
0.4089 8.2086 0.2752
0.3835 8.2996 0.1678
0.3977 8.2235 0.1451
0.4125 8.1479 0.1241
0.4226 8.1337 0.2542
0.3996 8.2384 0.0094
0.4151 8.1622 -0.011
0.3845 8.315 0.031
0.3834 8.3605 0.3223
0.3697 8.3766 0.1919
0.3716 8.4385 0.3476
0.3564 8.4551 0.2167
0.4846 8.1096 0.4883
0.447 8.1207 0.376
0.4982 8.0352 0.4704
0.4607 8.0461 0.3573
0.4368 8.0588 0.2349
0.5356 8.1011 0.5905
0.5221 8.1754 0.6086
0.3603 8.5184 0.3735
0.3494 8.6005 0.3994
0.3305 8.618 0.2659
0.3434 8.5355 0.2416
2.1307 0.0465 1.6695
2.1436 0.0352 1.7064
2.1446 0.0543 1.7287
2.1627 0.0144 1.71
2.1747 0.0324 1.7457
2.1916 0.0603 1.7617
2.1572 0.0837 1.7489
4.7841 12.652 -1.1262
4.8331 12.5392 -1.0916
3.1578 13.8561 -1.1804
3.1272 13.8289 -1.0891
3.0829 13.9627 -1.1591
3.0591 13.9385 -1.0705
2.9887 14.0461 -1.0442
3.0045 14.066 -1.1314
3.0267 14.0864 -1.2289
2.9377 14.185 -1.2128
2.9213 14.1676 -1.1055
2.8333 14.2706 -1.0859
2.9138 14.1517 -1.0155
2.8339 14.2577 -0.9906
2.7511 14.3651 -0.9759
2.7423 14.3764 -1.0765
2.6644 14.4732 -0.9715
2.6508 14.486 -1.0793
2.5657 14.5989 -1.0868
2.5789 14.5825 -0.9722
2.7571 14.3454 -0.8916
2.7581 14.3163 -0.802
2.8336 14.2374 -0.9102
2.8314 14.2082 -0.8216
2.9071 14.1295 -0.933
2.9032 14.1021 -0.8413
2.9756 14.0223 -0.9572
2.9694 13.9972 -0.8615
2.8404 14.1794 -0.715
3.7828 13.949 -1.6042
3.7168 14.0614 -1.6047
3.6528 14.1695 -1.6109
1.0804 9.2877 -1.1055
1.0993 9.2091 -1.0959
0.9689 9.1816 -1.0587
1.1188 9.1295 -1.087
0.9886 9.1026 -1.0522
0.8624 9.0789 -0.9957
0.8427 9.158 -0.9997
0.7628 8.9789 -0.9174
0.8823 8.9992 -0.9925
0.7826 8.8988 -0.917
0.9024 8.9191 -0.9901
0.8024 8.8187 -0.9174
0.7111 8.7219 -0.8299
0.8221 8.7386 -0.9186
0.7301 8.6426 -0.8342
0.8416 8.6586 -0.9206
0.749 8.5635 -0.8394
0.861 8.5785 -0.9234
0.9626 8.6766 -0.9872
0.9824 8.5953 -0.9875
0.9426 8.7577 -0.9875
0.6123 8.7073 -0.7235
0.9225 8.8386 -0.9884
1.0493 8.861 -1.0384
1.0697 8.7792 -1.0354
1.0289 8.9421 -1.0422
1.0086 9.0227 -1.0468
1.1388 9.0491 -1.0792
1.1591 8.9679 -1.0724
1.2697 9.0781 -1.0895
1.2899 8.996 -1.0806
1.2499 9.1595 -1.0995
1.2307 9.24 -1.1104
1.3789 9.1919 -1.0896
1.3601 9.2739 -1.1025
1.3984 9.1093 -1.0779
1.4184 9.026 -1.0673
1.3105 8.9131 -1.0728
1.4388 8.9419 -1.0577
1.4593 8.857 -1.0493
1.562 8.9719 -1.0227
1.5822 8.8858 -1.0128
1.542 9.0574 -1.0334
1.3311 8.8293 -1.0659
1.1797 8.8859 -1.0666
1.5223 9.142 -1.0451
1.5032 9.2263 -1.0582
1.2121 9.3197 -1.1223
2.4299 4.891 -0.9426
2.4375 4.7347 -0.9636
2.4658 4.57 -0.8595
2.4407 4.5775 -0.9789
2.4644 4.4141 -0.87
2.4389 4.4202 -0.988
2.4299 4.264 -0.99
2.4551 4.2583 -0.8748
2.3868 4.27 -1.1034
2.3951 4.4273 -1.1037
2.3311 4.4366 -1.2081
2.2516 4.4467 -1.2987
2.1573 4.4573 -1.3704
2.0553 4.3018 -1.425
2.0501 4.4679 -1.4197
2.1595 4.292 -1.3748
1.9335 4.4781 -1.4465
1.9415 4.3125 -1.4521
2.0566 4.1379 -1.4211
2.1566 4.1296 -1.3685
2.2509 4.2834 -1.3019
2.2429 4.1241 -1.2928
2.3268 4.2764 -1.2094
2.3147 4.1199 -1.1996
2.3722 4.115 -1.0955
2.4146 4.1088 -0.9861
2.2285 3.9701 -1.2733
2.2967 3.967 -1.1826
2.3521 3.9621 -1.0827
2.4397 4.1028 -0.8752
2.3937 3.9548 -0.9784
2.4183 3.9476 -0.8724
2.3904 3.7937 -0.8684
2.3668 3.8019 -0.9693
2.2979 3.6608 -1.0548
2.3266 3.8108 -1.0679
2.3364 3.6503 -0.9614
2.2668 3.5116 -1.0458
2.3027 3.5002 -0.9568
2.2199 3.5207 -1.1308
2.2475 3.6686 -1.1442
2.2734 3.817 -1.1625
2.2352 3.3628 -1.0423
2.2675 3.3518 -0.9566
2.3225 3.4909 -0.8648
2.2844 3.3435 -0.8674
2.3585 3.6411 -0.8654
2.3941 3.7898 -0.7662
2.361 3.6375 -0.7671
2.4229 3.9438 -0.7658
2.4448 4.0989 -0.7643
2.4605 4.2542 -0.7602
2.446 4.2518 -0.6472
2.4303 4.098 -0.6546
2.4006 4.0988 -0.5468
2.4156 4.2503 -0.5367
2.4082 3.9441 -0.6597
2.3793 3.9467 -0.5547
2.3605 4.0991 -0.4419
2.374 4.2481 -0.4297
2.4241 4.4009 -0.524
2.3811 4.3958 -0.4153
2.4552 4.405 -0.6368
2.4698 4.4091 -0.7525
2.4709 4.5635 -0.7403
2.4562 4.5572 -0.6229
2.394 4.9883 -0.4455
2.4102 4.8444 -0.4695
2.4204 4.6983 -0.4905
2.3765 4.6869 -0.3799
2.3816 4.5422 -0.3987
2.4251 4.5503 -0.5087
2.3287 4.3893 -0.3122
2.3283 4.5325 -0.2945
2.3228 4.6739 -0.275
2.3661 4.8295 -0.3588
2.3125 4.8131 -0.2537
2.2597 4.6597 -0.1781
2.2503 4.7957 -0.1559
2.1852 4.6448 -0.0921
2.1739 4.7778 -0.0709
2.1579 4.9084 -0.0492
2.0977 4.6297 -0.0223
2.0862 4.7597 -0.0009
2.0708 4.8878 0.0206
2.2656 4.5215 -0.1983
2.1916 4.5099 -0.113
2.2667 4.3816 -0.2172
2.3235 4.2445 -0.328
2.2536 4.0961 -0.2507
2.3121 4.0981 -0.3421
2.2631 4.2398 -0.2345
2.2388 3.9504 -0.2655
2.2952 3.95 -0.3544
2.171 3.9507 -0.1891
2.1832 4.0938 -0.1716
2.2189 3.803 -0.2793
2.273 3.8008 -0.3656
2.1543 3.8054 -0.2055
2.1904 4.2346 -0.1533
2.1033 4.0907 -0.1071
2.0952 3.9502 -0.1261
2.1075 4.2285 -0.087
2.3412 3.949 -0.4521
2.3164 3.7984 -0.461
2.3518 3.7949 -0.5613
2.2867 3.648 -0.4698
2.3198 3.644 -0.5679
2.2454 3.6512 -0.377
2.1932 4.3732 -0.1336
2.1081 4.3641 -0.0657
2.0192 4.3545 -0.0115
2.0211 4.2216 -0.0345
2.105 4.4978 -0.0439
2.0143 4.4855 0.0116
2.1378 5.0363 -0.026
2.0517 5.0134 0.0433
1.9804 4.8684 0.0786
1.9634 4.992 0.1019
1.8875 4.852 0.1216
1.8727 4.9742 0.1463
1.9948 4.7426 0.0564
2.0062 4.6149 0.0343
1.921 4.4746 0.0511
1.9119 4.602 0.075
1.9007 4.7279 0.0983
1.8142 4.5926 0.0964
1.8029 4.7174 0.121
1.7005 4.712 0.124
1.712 4.5874 0.0977
1.5938 4.7115 0.1119
1.6053 4.5859 0.0835
1.689 4.8355 0.1501
1.5831 4.8363 0.1402
1.7906 4.8407 0.1456
1.8244 4.4666 0.071
1.7237 4.4619 0.0706
1.7776 4.9623 0.1714
1.9444 5.1131 0.1281
1.8564 5.094 0.1739
1.9234 5.2319 0.1586
1.8386 5.211 0.2067
1.9017 5.348 0.1955
1.8807 5.4627 0.2384
1.8208 5.3254 0.2467
1.8022 5.4393 0.2923
1.7114 5.428 0.3177
1.7304 5.3129 0.2732
1.7787 5.5572 0.3345
1.69 5.5456 0.3658
1.8584 5.5784 0.2814
1.7537 5.6778 0.371
1.6676 5.6686 0.4073
1.8375 5.6938 0.3237
1.615 5.4352 0.3138
1.6331 5.315 0.2723
1.5935 5.5495 0.3736
1.5333 5.3277 0.2595
1.5189 5.4536 0.2945
1.4945 5.5691 0.3583
1.6487 5.1958 0.2379
1.7471 5.1982 0.2336
1.9305 5.6056 0.2129
2.0299 5.1365 0.0684
1.7629 5.0817 0.2
1.677 4.9575 0.1772
1.6633 5.0774 0.2066
1.5717 4.9594 0.1695
1.5588 5.0809 0.2001
1.5457 5.2032 0.2302
1.4512 5.0957 0.1855
1.4397 5.2201 0.2184
1.3446 5.1201 0.1613
1.3345 5.2473 0.1954
1.431 5.3467 0.2465
1.3287 5.3744 0.2249
1.4633 4.9702 0.1528
1.3657 4.8607 0.0954
1.4741 4.843 0.1219
1.356 4.9915 0.1274
1.2636 4.8871 0.0561
1.2549 5.0209 0.0881
1.2449 5.1521 0.1213
1.4837 4.7156 0.0914
1.3738 4.7284 0.064
2.1542 6.2551 0.0743
2.1153 6.2375 0.1488
2.0664 6.2216 0.2284
2.0085 6.2055 0.3133
1.9437 6.1874 0.4037
1.9621 6.0714 0.3565
1.9017 6.0429 0.4484
1.877 6.1663 0.496
1.9318 6.3027 0.4484
1.8611 6.2897 0.5402
1.9984 6.3165 0.3564
1.991 6.4281 0.3968
1.9218 6.4193 0.4853
1.9823 6.5408 0.4332
1.9077 6.5358 0.5124
2.0397 6.6599 0.3889
1.9708 6.6531 0.4652
2.047 6.5492 0.3516
2.0526 6.4392 0.312
1.8922 6.6492 0.536
1.8447 6.4135 0.5656
1.8247 6.5329 0.5815
2.0584 6.3301 0.271
2.1096 6.3436 0.1917
2.1054 6.4513 0.2324
1.807 6.1469 0.5733
1.8388 6.0112 0.5321
1.7834 6.281 0.6091
1.7238 6.1399 0.6182
1.6957 6.2785 0.6451
1.6305 6.1458 0.6305
1.5997 6.2827 0.6513
1.7521 5.9983 0.5809
1.6539 6.0058 0.5976
1.4973 6.2947 0.6318
1.5285 6.1652 0.6115
1.5671 6.4113 0.6623
1.4635 6.4184 0.646
1.6663 6.4087 0.6559
1.7593 6.4098 0.624
1.7345 6.531 0.6331
1.6382 6.5306 0.663
1.8432 5.8973 0.4625
1.7509 5.7808 0.4364
1.8359 5.7972 0.3873
1.757 5.8809 0.5124
1.6602 5.8858 0.537
1.6585 5.7802 0.4658
1.5601 5.7962 0.4736
1.5572 5.9162 0.5283
1.5489 6.0318 0.5852
2.1509 6.3575 0.1175
2.1488 6.4634 0.1571
2.1839 6.5811 0.1191
2.1472 6.5718 0.1944
2.183 6.4745 0.0854
2.2128 6.5874 0.0455
2.2089 6.484 0.0168
2.2163 6.694 0.0705
2.184 6.6895 0.1497
2.1445 6.6809 0.2295
2.1832 6.7973 0.1761
2.1413 6.7893 0.2604
2.092 6.7791 0.3433
2.1394 6.8955 0.2858
2.0875 6.8862 0.3705
2.1832 6.9027 0.1966
2.097 6.67 0.3095
2.2188 6.8009 0.0911
2.2421 6.6945 -0.0085
2.2483 6.8003 0.0059
2.1016 6.5605 0.2718
2.2052 6.3874 -0.0163
2.1825 6.3721 0.0479
1.6221 5.1479 -1.354
1.5183 4.991 -1.3507
1.502 5.152 -1.3179
1.6397 4.9861 -1.385
1.3916 5.1546 -1.2588
1.406 4.9951 -1.2936
1.3055 4.9977 -1.2171
1.2937 5.1553 -1.1807
1.2186 4.9984 -1.1257
1.2093 5.154 -1.0888
1.281 5.311 -1.1379
1.1995 5.3078 -1.0461
1.1912 5.4591 -0.9955
1.1821 5.6063 -0.9406
1.1249 5.596 -0.839
1.1202 5.7338 -0.7798
1.1732 5.7469 -0.8824
1.0834 5.5799 -0.7318
1.0817 5.7147 -0.6733
1.0523 5.5571 -0.623
1.0521 5.6891 -0.5661
1.0839 5.8379 -0.6116
1.1183 5.8609 -0.7181
1.057 5.8088 -0.5055
1.1301 5.451 -0.8941
1.0859 5.4377 -0.7856
1.167 5.8777 -0.822
1.2351 5.8886 -0.9177
1.1632 5.9949 -0.7621
1.2281 6.0103 -0.8603
1.1188 5.9728 -0.6568
1.1344 5.3018 -0.9438
1.1406 5.1501 -0.9861
1.1477 4.9967 -1.0226
1.23 4.841 -1.1559
1.1572 4.8415 -1.0534
1.3185 4.8385 -1.2463
1.0897 5.1421 -0.8749
1.0875 5.2912 -0.8337
1.055 5.2745 -0.7195
1.0545 5.4179 -0.6743
1.0549 5.1284 -0.7585
1.0947 4.9913 -0.9102
1.0629 4.8313 -0.822
1.0576 4.9804 -0.7921
1.1019 4.8389 -0.9411
1.4208 4.8344 -1.3213
1.3332 4.6784 -1.2702
1.4363 4.6732 -1.3433
1.4526 4.5117 -1.3608
1.3497 4.5179 -1.2895
1.3681 4.3572 -1.3036
1.4696 4.3498 -1.3728
1.5507 4.6669 -1.3967
1.5665 4.5044 -1.412
1.5818 4.3416 -1.4215
1.4867 4.1877 -1.3772
1.5961 4.1789 -1.4227
1.3878 4.1968 -1.3104
1.6876 4.4964 -1.4421
1.7007 4.3327 -1.4493
1.6728 4.6599 -1.4284
1.8114 4.4876 -1.4532
1.822 4.323 -1.4592
1.7981 4.6525 -1.4401
1.2602 4.523 -1.2017
1.2437 4.6822 -1.1811
1.1696 4.6848 -1.0795
1.1853 4.5275 -1.101
1.1258 4.5307 -0.9906
1.1122 4.6852 -0.9678
1.2051 4.3704 -1.1174
1.2797 4.3639 -1.2171
1.1438 4.3758 -1.0089
1.0813 4.5298 -0.8734
1.0709 4.6811 -0.8489
1.5346 4.8291 -1.3766
1.6567 4.8232 -1.4095
2.0143 6.4785 -0.8595
1.9822 6.581 -0.8582
1.8695 6.5899 -0.9137
1.834 6.6814 -0.9112
1.9492 6.6753 -0.862
2.051 6.6618 -0.793
2.0235 6.7527 -0.8059
1.9178 6.7633 -0.8687
1.8893 6.8478 -0.8772
1.9976 6.8407 -0.8202
1.8635 6.9309 -0.8869
1.7725 6.8483 -0.9159
1.7454 6.9303 -0.9216
1.6498 6.8421 -0.9355
1.6224 6.9243 -0.9376
1.5251 6.8294 -0.9346
1.498 6.9131 -0.934
1.7204 7.0131 -0.9281
1.5972 7.0074 -0.9407
1.5738 7.0919 -0.9448
1.6974 7.0975 -0.935
1.473 6.9979 -0.9349
1.4497 7.0837 -0.9371
1.8398 7.0149 -0.8975
1.4027 6.8113 -0.913
1.3758 6.8976 -0.9109
1.4322 6.7266 -0.9173
1.3163 6.7014 -0.8764
1.2865 6.7895 -0.8713
1.5547 6.7469 -0.9372
1.2593 6.8793 -0.8687
1.6795 6.7605 -0.9353
1.7115 6.6779 -0.9384
1.5867 6.6647 -0.943
1.8018 6.7663 -0.9122
1.9739 6.9271 -0.8347
2.0741 6.9193 -0.7652
2.0935 6.8289 -0.7456
2.1136 6.7377 -0.7263
2.1342 6.6439 -0.7082
2.1595 6.9099 -0.6793
1.9524 7.0137 -0.8493
2.056 7.0102 -0.784
2.1471 7.0054 -0.7013
2.1345 7.1014 -0.7214
2.0394 7.1018 -0.8013
1.9328 7.1016 -0.8632
1.9054 6.4895 -0.9209
1.7844 6.4924 -0.9586
1.7467 6.5898 -0.946
1.658 6.4861 -0.9703
1.6207 6.5793 -0.9537
1.4975 6.5593 -0.9373
1.464 6.6432 -0.9248
1.3822 6.5319 -0.8978
1.3485 6.6157 -0.8847
1.244 6.5848 -0.8248
1.2105 6.6739 -0.8163
1.1178 6.6465 -0.7403
1.0857 6.743 -0.7364
1.1798 6.766 -0.8114
1.1528 6.5532 -0.7481
1.2786 6.4997 -0.838
1.5334 6.4705 -0.956
2.2256 6.9019 -0.5816
2.2704 6.8964 -0.4776
2.295 6.8941 -0.3729
2.2867 6.7909 -0.3575
2.2921 6.7904 -0.2615
2.2965 6.898 -0.1725
2.2864 6.793 -0.1693
2.3026 6.8951 -0.2708
2.2712 6.797 -0.0804
2.2614 6.6922 -0.0881
2.2796 6.9018 -0.0775
2.2538 6.905 0.015
2.2868 7.0054 -0.0791
2.3048 7.0026 -0.1793
2.3105 7.1064 -0.19
2.2932 7.1075 -0.0856
2.3104 7.0001 -0.283
2.3147 7.1049 -0.2975
2.2594 7.0076 0.0183
2.2212 6.9057 0.106
2.2252 7.0079 0.1145
2.2659 7.1081 0.0164
2.2316 7.1076 0.1171
2.1859 7.0053 0.2106
2.192 7.1053 0.2177
2.3004 6.9988 -0.39
2.3021 7.1034 -0.4079
2.3001 7.2063 -0.4258
2.2687 7.102 -0.5187
2.2636 7.2035 -0.538
2.2711 6.9992 -0.4984
2.22 7.0015 -0.6042
2.2125 7.1013 -0.6253
2.2036 7.2003 -0.6448
2.1217 7.1971 -0.7396
2.3142 7.3097 -0.3296
2.3156 7.2082 -0.3133
2.2957 7.3074 -0.4432
2.3155 7.3101 -0.2173
2.3139 7.2088 -0.203
2.3155 7.4105 -0.2315
2.3112 7.4102 -0.3453
2.2898 7.4077 -0.4599
2.2987 7.2086 -0.0953
2.3032 7.309 -0.1068
2.2563 7.3035 -0.5559
2.2474 7.4031 -0.5728
2.2368 7.5022 -0.5879
2.2822 7.5074 -0.4754
2.1817 7.3968 -0.6789
2.1687 7.4947 -0.6925
2.1935 7.2984 -0.6627
1.351 6.9851 -0.9105
1.328 7.0732 -0.9118
1.2345 6.9701 -0.8682
1.2118 7.0611 -0.8693
1.1268 6.9543 -0.8092
1.104 7.0484 -0.8108
1.152 6.8599 -0.8093
1.0568 6.841 -0.7352
1.0307 6.9391 -0.7361
0.9751 6.8241 -0.65
0.9479 6.9253 -0.6518
0.9075 6.8101 -0.5574
0.879 6.9137 -0.5598
0.8534 7.015 -0.5629
0.9234 7.0249 -0.6547
1.0072 7.0361 -0.7383
0.9012 7.122 -0.6584
0.9858 7.1313 -0.7417
1.0829 7.1412 -0.8137
0.9657 7.2242 -0.7461
1.0631 7.2323 -0.8177
0.8804 7.2164 -0.6629
0.8301 7.1136 -0.5665
0.7967 7.0063 -0.4658
0.7724 7.1056 -0.4685
0.7526 6.9982 -0.365
0.7272 7.0976 -0.3661
0.8235 6.9039 -0.4631
0.7803 6.8955 -0.3636
0.8083 7.209 -0.5705
0.7496 7.2016 -0.4712
0.8865 6.6918 -0.4586
0.8533 6.7988 -0.4606
0.9393 6.7051 -0.5561
0.9239 6.584 -0.458
0.9751 6.6 -0.557
1.015 6.4975 -0.5617
0.9658 6.4777 -0.4612
1.0106 6.3768 -0.4711
1.0568 6.402 -0.573
1.0766 6.5232 -0.6587
1.1154 6.4321 -0.671
1.0394 6.6212 -0.6525
0.8839 6.5727 -0.3591
0.8454 6.6821 -0.3603
0.9269 6.4636 -0.3608
1.0055 6.7222 -0.65
0.811 6.79 -0.362
0.7794 6.7827 -0.2626
0.7483 6.8878 -0.2623
0.814 6.6748 -0.2624
0.7578 6.7759 -0.1626
0.7271 6.88 -0.1598
0.7918 6.6687 -0.1648
1.1908 7.1514 -0.8718
1.3067 7.1613 -0.9144
1.4078 7.2569 -0.9447
1.4281 7.1702 -0.9404
1.2867 7.249 -0.9182
1.5317 7.2641 -0.9548
1.552 7.1777 -0.9495
1.676 7.1835 -0.9417
1.7975 7.1878 -0.9173
1.818 7.1006 -0.9078
1.7782 7.2763 -0.9259
1.6559 7.2705 -0.9485
1.637 7.3583 -0.9551
1.5125 7.3509 -0.9606
1.3886 7.3434 -0.9499
1.7598 7.3657 -0.9337
1.8788 7.3732 -0.8962
1.8963 7.2817 -0.8871
1.9143 7.1911 -0.876
1.1709 7.2407 -0.8756
1.1519 7.3285 -0.8806
1.2676 7.3359 -0.9231
1.1331 7.4151 -0.8868
1.249 7.4222 -0.9293
1.2307 7.5078 -0.9366
1.3523 7.5159 -0.9631
1.3702 7.4298 -0.9561
1.4768 7.525 -0.9737
1.4943 7.4379 -0.9669
1.6191 7.4466 -0.9617
1.7423 7.4557 -0.9406
1.6019 7.535 -0.9682
1.7254 7.5457 -0.947
1.4597 7.6119 -0.981
1.3347 7.6018 -0.971
1.2125 7.5931 -0.9447
1.1144 7.5006 -0.8942
1.0955 7.5855 -0.9024
1.3171 7.6875 -0.9794
1.4429 7.6984 -0.9889
1.2994 7.7731 -0.988
1.426 7.7848 -0.9968
1.5689 7.7108 -0.9818
1.5853 7.6231 -0.9749
1.5525 7.798 -0.9888
1.1941 7.6781 -0.9534
1.0761 7.67 -0.911
1.1754 7.763 -0.9623
1.0564 7.7545 -0.9194
1.044 7.3213 -0.8229
1.025 7.4085 -0.8293
0.9461 7.3145 -0.7515
0.9267 7.4025 -0.7578
1.0057 7.4942 -0.8366
0.9068 7.4885 -0.7647
0.8401 7.3967 -0.6738
0.8195 7.4832 -0.6799
0.8602 7.3079 -0.6681
-3.4066 15.1968 -1.3689
-3.4622 15.2128 -1.2202
-3.5713 15.1207 -1.0709
-3.6322 15.0208 -1.0764
-3.6927 14.9187 -1.0785
-3.711 14.9092 -0.9232
-3.6568 15.0099 -0.9194
-3.6021 15.11 -0.9134
-3.6635 14.9842 -0.7642
-3.6151 15.0853 -0.7588
-3.5561 15.1594 -0.6057
-3.605 15.0555 -0.6098
-3.6517 14.953 -0.613
-3.6307 14.9265 -0.4663
-3.5825 15.0333 -0.4645
-3.5326 15.1409 -0.4631
-3.4779 15.2481 -0.4629
-3.5026 15.2625 -0.6023
-3.4361 15.2328 -0.3208
-3.7125 14.8844 -0.7681
-3.753 14.8159 -1.0777
-3.7251 14.8043 -1.2285
-3.6833 14.7774 -1.3712
-3.7511 14.6681 -1.3536
-3.817 14.5584 -1.3358
-3.4183 15.3525 -0.4656
-3.3745 15.3394 -0.3261
-5.7521 9.5734 -0.6942
-5.7565 9.5756 -0.7258
-5.7552 9.5782 -0.7586
-5.7287 9.435 -0.6916
-2.8297 14.4614 -0.1604
-2.7489 14.5872 -0.147
-2.8414 14.6142 -0.0411
-2.676 14.5776 -0.2663
-2.6091 14.6974 -0.2622
-2.7526 14.4552 -0.2794
-2.6929 14.4632 -0.4052
-2.6213 14.5815 -0.3918
-2.5559 14.6961 -0.3847
-0.36 20.4511 0.4361
-0.2423 20.4821 0.4562
-0.1214 20.4958 0.4655
-0.1207 20.5705 0.3328
0 20.4994 0.4681
0 20.576 0.3354
0.1214 20.4958 0.4655
0.1207 20.5705 0.3327
0.2407 20.5536 0.3246
0.2424 20.4822 0.4562
0.2383 20.6109 0.1858
0.1198 20.6308 0.1915
0.2352 20.6474 0.0381
0.3478 20.6127 0.0343
0.3534 20.5761 0.1756
0 20.6382 0.1935
-0.1198 20.6307 0.1915
0.1217 20.4091 0.5904
0 20.4119 0.593
-0.1217 20.4091 0.5904
0 20.3092 0.7039
0.1217 20.3062 0.7015
-0.2426 20.3965 0.5796
-5.7129 9.3472 -0.4422
-5.7259 9.282 -0.4324
-5.7029 9.2791 -0.414
-5.7207 9.2313 -0.3964
-5.6851 9.2782 -0.3902
-5.7043 9.2329 -0.375
-5.6747 9.2788 -0.3638
-5.6925 9.2391 -0.3525
-5.6855 9.2487 -0.3353
-5.6708 9.28 -0.3365
-5.7078 9.2181 -0.3335
-5.7251 9.2052 -0.3528
-5.7216 9.21 -0.3127
-5.7414 9.195 -0.3305
-5.7552 9.1931 -0.3104
-5.7731 9.1872 -0.3257
-5.7584 9.1904 -0.3476
-5.7363 9.2088 -0.294
-5.7041 9.2395 -0.2973
-5.719 9.2397 -0.2785
-5.7363 9.2424 -0.2616
-5.7024 9.2841 -0.265
-5.7229 9.287 -0.2476
-5.6862 9.2819 -0.2861
-5.7507 9.2144 -0.2767
-5.6925 9.2417 -0.318
-5.6747 9.2804 -0.3102
-5.7687 9.1984 -0.2903
-5.7876 9.191 -0.3033
-5.8001 9.2127 -0.2819
-5.8057 9.1901 -0.3169
-5.8035 9.2532 -0.2685
-5.7795 9.2174 -0.2717
-5.7811 9.2511 -0.2589
-5.7908 9.1866 -0.3412
-5.8272 9.1909 -0.3323
-5.8104 9.1914 -0.3583
-5.775 9.1908 -0.364
-5.7568 9.2026 -0.3892
-5.7408 9.202 -0.3716
-5.7397 9.2332 -0.4145
-5.7635 9.2377 -0.4275
-5.7759 9.2081 -0.4047
-5.7928 9.1958 -0.3806
-5.8103 9.2105 -0.3979
-5.7921 9.2186 -0.4108
-5.8352 9.2059 -0.3793
-5.6504 9.3407 -0.3367
-5.6344 9.4203 -0.3354
-5.6543 9.3415 -0.306
-5.6679 9.3435 -0.2789
-5.6872 9.3462 -0.2566
-5.8164 9.2486 -0.4141
-5.8297 9.2532 -0.387
-5.8411 9.2165 -0.3492
-5.8332 9.2574 -0.3583
-5.7896 9.2465 -0.4253
-5.7491 9.2919 -0.2411
-5.7582 9.2468 -0.2532
-5.763 9.2232 -0.2659
-1.68 15.1604 0.5294
-1.6225 15.1106 0.5888
-1.6107 15.0619 0.5432
-1.6686 15.1116 0.4846
-4.9893 9.9028 0.3781
-5.0287 9.8987 0.3838
-4.9907 9.8575 0.4213
-5.017 9.8455 0.44
-4.9627 9.8505 0.4357
-4.9898 9.8292 0.4755
-4.9628 9.8343 0.5038
-4.9918 9.8349 0.5305
-4.9734 9.8491 0.5506
-4.9432 9.8503 0.5247
-4.9296 9.8546 0.4588
-4.9085 9.8737 0.4832
-4.9321 9.8716 0.5418
-4.9582 9.8637 0.5696
-4.9159 9.8924 0.559
-4.9371 9.8828 0.5886
-4.9188 9.9178 0.5647
-4.9374 9.9212 0.5795
-4.9018 9.925 0.5248
-4.9088 9.9494 0.5434
-4.9052 9.9006 0.5044
-4.9784 9.8585 0.5944
-4.8812 9.9592 0.4578
-4.9984 9.8597 0.6152
-4.8837 10.0846 0.4803
-4.9013 10.0055 0.508
-4.9311 9.9672 0.5564
-4.8913 9.9829 0.4838
-1.9368 0.2225 1.8047
-1.9674 0.2362 1.7899
2.4469 14.7717 -0.8602
2.7674 14.2856 -0.6939
1.9468 14.9727 -0.1729
1.9282 15.0301 -0.1139
1.8957 14.9574 -0.0611
1.9133 14.8951 -0.1198
1.8597 14.8834 -0.0021
1.8766 14.8166 -0.0605
1.8048 14.8776 0.1139
1.8435 14.9478 0.0498
1.8791 15.0175 -0.0096
1.8646 15.0745 0.0353
1.8291 15.0088 0.0958
1.4645 2.6553 -0.4904
1.5173 2.5082 -0.4401
1.5149 2.6577 -0.4247
1.5627 2.5057 -0.383
1.5633 2.656 -0.3694
1.6137 2.6509 -0.3277
1.6082 2.5 -0.3373
1.6546 2.4929 -0.3041
1.6627 2.6439 -0.2946
1.6976 2.4846 -0.2761
1.7073 2.6356 -0.2651
1.6872 2.3382 -0.2842
1.7294 2.3304 -0.268
1.7404 2.4763 -0.2573
1.7508 2.6274 -0.2436
1.7145 2.7884 -0.2478
1.6672 2.7967 -0.2791
1.7602 2.78 -0.2255
1.7691 2.9322 -0.204
1.7199 2.9411 -0.2267
1.8061 2.7728 -0.218
1.818 2.9246 -0.1967
1.7949 2.6202 -0.2359
1.6684 2.9496 -0.2592
1.6153 2.8033 -0.3142
1.6128 2.9559 -0.2965
1.6673 3.1014 -0.2378
1.6066 3.1071 -0.2767
1.7236 3.0929 -0.2045
1.5616 2.8073 -0.3564
1.7834 2.4691 -0.2519
1.8388 2.6156 -0.2456
1.8259 2.4648 -0.2613
1.8126 2.3206 -0.2764
1.8531 2.3207 -0.2994
1.8674 2.4637 -0.2848
1.8429 2.1866 -0.3109
1.8829 2.1889 -0.346
1.8939 2.3231 -0.3353
1.8032 2.1861 -0.2867
1.9091 2.4647 -0.3217
1.7716 2.3238 -0.2654
1.7627 2.1878 -0.2731
1.7206 2.1921 -0.2726
1.8814 2.6134 -0.2711
1.8955 2.765 -0.2554
1.8516 2.7679 -0.2287
1.6451 2.3457 -0.3109
1.5089 2.8074 -0.4113
1.4554 2.8036 -0.4765
1.4094 2.8005 -0.5517
1.4414 2.9518 -0.4625
1.3947 2.9481 -0.5386
1.3418 3.0924 -0.6104
1.3612 2.9458 -0.621
1.3753 3.0949 -0.5261
1.3148 3.2385 -0.6002
1.3494 3.2402 -0.5138
1.3256 3.0917 -0.6983
1.3449 2.9439 -0.7066
1.3764 2.7985 -0.6328
1.3597 2.7961 -0.7154
1.3218 3.0918 -0.7859
1.3427 2.9421 -0.7914
1.3241 3.0912 -0.8724
1.3479 2.9395 -0.8748
1.2908 3.2428 -0.78
1.2921 3.2452 -0.8684
1.2969 3.2398 -0.6902
1.2818 3.3854 -0.5907
1.2607 3.3902 -0.6823
1.3196 3.3845 -0.5025
1.4229 3.0991 -0.4482
1.3999 3.2444 -0.4344
1.4971 2.957 -0.3958
1.4808 3.1054 -0.3792
1.5547 2.9588 -0.34
1.5432 3.1086 -0.3219
1.4614 3.2511 -0.3634
1.4385 3.3929 -0.3481
1.373 3.387 -0.4208
1.5114 3.3988 -0.2863
1.4898 3.5373 -0.2681
1.4126 3.5313 -0.3316
1.5291 3.2562 -0.3035
1.3435 3.5271 -0.406
1.3841 2.7841 -0.9524
1.363 2.9363 -0.9564
1.3662 2.7891 -0.8749
1.3579 2.793 -0.7962
1.3956 2.9342 -1.0326
1.3383 3.0911 -0.9565
1.3727 3.0927 -1.0335
1.3084 3.2501 -0.9535
1.3473 3.2557 -1.0303
1.2742 3.4145 -0.9493
1.3175 3.4227 -1.0272
1.2535 3.4047 -0.8633
1.2099 3.5682 -0.8579
1.2368 3.5809 -0.9465
1.1628 3.721 -0.7536
1.1673 3.7347 -0.8495
1.2084 3.5572 -0.7654
1.2004 3.746 -0.9423
1.1327 3.9017 -0.8365
1.1689 3.9086 -0.9353
1.1025 4.0641 -0.8202
1.1225 3.887 -0.7362
1.0905 4.0492 -0.7128
1.1399 4.0678 -0.9258
1.2519 3.7514 -1.0308
1.2851 3.5892 -1.028
1.309 3.7475 -1.1191
1.3392 3.5877 -1.1088
1.2213 3.9099 -1.0317
1.2806 3.904 -1.1274
1.1798 3.7038 -0.658
1.222 3.5458 -0.6726
1.2462 3.5345 -0.5796
1.2078 3.6848 -0.5632
1.1676 3.8344 -0.5388
1.139 3.8625 -0.6365
1.2512 3.6705 -0.4715
1.2121 3.8114 -0.4454
1.2869 3.528 -0.4895
1.2518 3.3973 -0.7734
1.3993 3.2576 -1.1007
1.4587 3.2561 -1.1673
1.527 3.2538 -1.2261
1.5018 3.4113 -1.2349
1.4303 3.4174 -1.1734
1.3703 3.4236 -1.1014
1.4 3.5774 -1.1866
1.3736 3.7357 -1.2029
1.4738 3.5659 -1.2533
1.4498 3.7217 -1.2755
1.6038 3.2531 -1.2729
1.6216 3.095 -1.2697
1.5833 3.4085 -1.2818
1.5607 3.561 -1.3012
1.6709 3.4075 -1.3139
1.6862 3.2531 -1.3057
1.6542 3.559 -1.3319
1.6995 3.0957 -1.3023
1.7107 2.9364 -1.2983
1.7579 2.059 -0.2749
1.7995 2.058 -0.2882
1.84 2.0588 -0.3137
1.8804 2.0604 -0.3496
1.8853 1.9351 -0.3457
1.892 1.812 -0.3399
1.944 1.8069 -0.3876
1.931 1.9346 -0.3928
1.9763 1.935 -0.4546
1.9638 2.0673 -0.4564
1.9211 2.0633 -0.3966
1.9223 2.1937 -0.3939
1.9333 2.328 -0.385
1.9623 2.1998 -0.4543
1.9718 2.3343 -0.4465
2.0253 1.9362 -0.5229
2.0113 2.0713 -0.524
2.0064 2.2052 -0.5221
2.013 2.3399 -0.5148
2.0543 2.3443 -0.5872
2.0874 2.3476 -0.663
2.0669 2.4814 -0.5765
2.0978 2.4849 -0.6549
2.1147 2.6245 -0.6438
2.0853 2.6214 -0.5628
2.1164 2.4874 -0.7363
2.1327 2.627 -0.7283
2.1415 2.6276 -0.8135
2.1623 2.7686 -0.8068
2.1528 2.7681 -0.7188
2.1859 2.9105 -0.7988
2.1753 2.9106 -0.7087
2.2132 3.0532 -0.7903
2.2014 3.0543 -0.6985
2.2155 3.054 -0.88
2.188 2.9106 -0.8872
2.246 3.1966 -0.782
2.2328 3.1985 -0.6888
2.2837 3.3411 -0.7749
2.2694 3.3435 -0.68
2.2474 3.3472 -0.5844
2.2127 3.2008 -0.595
2.3084 3.4902 -0.673
2.2843 3.4946 -0.5753
2.3234 3.4877 -0.7698
2.2478 3.1981 -0.8729
2.1827 3.055 -0.6068
2.1573 2.9099 -0.6191
2.1779 2.9125 -0.9722
2.204 3.0582 -0.9664
2.1788 3.0647 -1.0482
2.155 2.916 -1.0524
2.1544 2.7677 -0.9762
2.1331 2.7681 -1.0542
2.1638 2.768 -0.8932
2.1434 3.0708 -1.1246
2.1666 3.2219 -1.1227
2.2054 3.2138 -1.0439
2.1221 2.9194 -1.1263
2.2339 3.2046 -0.9604
2.135 2.7662 -0.6315
2.1066 2.7642 -0.5481
2.1299 2.9091 -0.5331
2.0927 2.9093 -0.4541
2.0688 2.7631 -0.4713
2.0262 2.7628 -0.4029
2.006 2.6165 -0.4194
2.0471 2.6189 -0.4876
1.9877 2.4731 -0.4339
1.9651 2.6141 -0.3592
1.949 2.4681 -0.3723
1.9825 2.7629 -0.3438
2.0279 2.4776 -0.5026
2.049 2.9105 -0.3845
2.0029 2.9122 -0.3249
2.075 3.0588 -0.3645
2.0267 3.0615 -0.3032
2.1194 3.0567 -0.4364
2.1558 3.0555 -0.5182
2.1857 3.2025 -0.5038
2.1494 3.2045 -0.419
2.1424 2.6261 -0.8972
2.1247 2.4873 -0.8182
2.1249 2.4847 -0.8989
2.1156 2.4805 -0.9766
2.1333 2.6237 -0.9776
2.113 2.6215 -1.053
2.0956 2.476 -1.0493
2.0832 2.6195 -1.1216
2.1022 2.7687 -1.1256
2.0663 2.4719 -1.1154
2.1067 2.3491 -0.7412
1.9675 2.0239 -1.2013
1.9273 2.022 -1.2381
1.8875 2.166 -1.2652
1.9297 2.1678 -1.2425
1.8927 2.3128 -1.2712
1.9374 2.3144 -1.2494
1.9002 2.4626 -1.281
1.948 2.4633 -1.259
1.9786 2.3171 -1.213
1.9913 2.4653 -1.2223
1.9599 2.6151 -1.2698
2.0059 2.6158 -1.2324
1.9161 2.7715 -1.3031
1.9718 2.7694 -1.2798
1.9084 2.6157 -1.2925
1.9226 2.9288 -1.3109
1.9829 2.9252 -1.2871
2.0211 2.7686 -1.2411
2.0361 2.923 -1.247
2.0822 2.9215 -1.1923
2.0644 2.7687 -1.1887
2.051 3.0775 -1.2508
2.1007 3.0747 -1.1935
1.9932 3.081 -1.2923
1.9275 3.0859 -1.3164
1.8561 2.9329 -1.3198
1.8554 3.0912 -1.3247
2.0031 3.235 -1.2977
