8.227173 51.667458 -21.46249
8.459142 51.303371 -21.714371
8.198297 51.449188 -22.224638
8.198297 51.449188 -22.224638
7.836201 51.509323 -22.690727
3.553522 50.936333 -24.269939
3.226277 51.102089 -24.61137
3.256304 51.399693 -24.464024
3.633109 51.250603 -24.04903
3.866824 51.058674 -23.599785
3.731737 50.72226 -23.908318
3.249082 50.456688 -24.29343
3.198414 50.687767 -24.5392
3.553522 50.936333 -24.269939
3.198414 50.687767 -24.5392
3.038914 50.881535 -24.701674
3.226277 51.102089 -24.61137
3.542142 51.539375 -23.886543
3.195996 51.655479 -24.313438
3.007603 51.77597 -24.203995
3.182991 51.761707 -23.871239
3.283377 51.664982 -23.431499
3.750056 51.391033 -23.420822
3.542142 51.539375 -23.886543
3.750056 51.391033 -23.420822
3.866824 51.058674 -23.599785
3.633109 51.250603 -24.04903
3.256304 51.399693 -24.464024
3.195996 51.655479 -24.313438
6.045048 51.428963 -22.998425
6.583114 51.473701 -23.099297
6.63843 51.231457 -23.276636
6.070612 51.125374 -23.234026
5.53547 51.049576 -23.066017
5.53674 51.43177 -22.757122
6.045048 51.428963 -22.998425
5.53674 51.43177 -22.757122
5.893108 51.764053 -22.33515
6.28357 51.702229 -22.682293
6.621259 51.658051 -22.850433
6.583114 51.473701 -23.099297
6.222791 50.855488 -23.385597
6.750931 50.999733 -23.409489
6.895031 50.867966 -23.377293
6.604323 50.696369 -23.370377
6.247644 50.523685 -23.213306
5.731391 50.725426 -23.246647
5.53547 51.049576 -23.066017
6.070612 51.125374 -23.234026
6.63843 51.231457 -23.276636
7.317949 50.725067 -23.105585
7.986839 50.893005 -22.749393
8.115614 50.656792 -22.428305
7.20737 50.508732 -22.880302
6.247644 50.523685 -23.213306
6.604323 50.696369 -23.370377
7.317949 50.725067 -23.105585
6.604323 50.696369 -23.370377
6.895031 50.867966 -23.377293
7.381889 50.945049 -23.242647
7.7932 51.038368 -22.9585
7.986839 50.893005 -22.749393
2.462818 50.596104 -24.846737
3.198414 50.687767 -24.5392
3.249082 50.456688 -24.29343
2.323148 50.336842 -24.702118
1.390704 50.417141 -24.96883
1.723589 50.683479 -25.063555
2.039286 50.888882 -25.05954
2.567192 50.869514 -24.935467
3.038914 50.881535 -24.701674
6.923649 51.881149 -22.289131
6.28357 51.702229 -22.682293
5.893108 51.764053 -22.33515
6.76248 51.938461 -21.815289
7.691589 51.918449 -21.442688
7.617568 51.910286 -22.008682
7.492966 51.833801 -22.408646
7.068496 51.785591 -22.683598
6.621259 51.658051 -22.850433
2.458021 51.876671 -24.091881
1.730617 51.850525 -24.410511
1.436179 51.815163 -24.06284
2.368731 51.826168 -23.691879
3.283377 51.664982 -23.431499
3.182991 51.761707 -23.871239
3.007603 51.77597 -24.203995
2.531507 51.859535 -24.434578
2.023949 51.824074 -24.581625
15.394121 43.178375 -5.068544
20.394516 45.812782 -13.722061
16.957218 46.308823 -16.728792
14.563947 45.411819 -12.802383
7.86247 37.472847 -3.875581
20.402706 39.500874 -13.009985
32.419991 50.468445 -41.998661
40.834232 39.32711 -68.952286
37.45031 34.485493 -67.550682
29.134773 47.680401 -41.537395
36.340038 50.07502 -39.401482
45.355858 38.599155 -65.768837
37.556633 46.480377 -37.325207
45.746159 35.217781 -64.18029
36.436199 2.163219 -101.406181
36.534828 1.917663 -102.4879
35.251572 1.89404 -102.723854
34.883076 1.920662 -101.625511
29.490879 43.850231 -25.374567
28.422253 49.919083 -26.415236
24.995209 49.914429 -28.612997
14.53644 42.489204 -18.170799
22.806515 46.216927 -30.263916
8.453545 40.711739 -9.009369
41.114655 30.290926 -65.681839
32.775337 42.543392 -39.108597
32.775337 42.543392 -39.108597
41.114655 30.290926 -65.681839
16.844666 36.467651 -15.235373
25.54435 40.498039 -27.482702
25.54435 40.498039 -27.482702
16.844666 36.467651 -15.235373
7.86247 37.472847 -3.875581
36.436199 2.163219 -101.406181
34.883076 1.920662 -101.625511
-15.443235 43.046265 -5.121742
-14.563931 45.411827 -12.802387
-16.957205 46.308846 -16.728786
-20.394506 45.812801 -13.722054
-7.862461 37.472839 -3.875596
-20.402706 39.500889 -13.009998
-32.420002 50.468555 -41.998631
-29.13479 47.680508 -41.537361
-37.450359 34.485657 -67.550682
-40.83427 39.327274 -68.952278
-36.340054 50.075127 -39.401451
-45.355896 38.599304 -65.768837
-37.556652 46.480476 -37.325184
-45.746193 35.21793 -64.18029
-36.534832 1.917834 -102.48793
-36.436211 2.163391 -101.406227
-35.251575 1.894212 -102.723885
-34.883083 1.920834 -101.625557
-28.422256 49.919147 -26.415203
-29.490891 43.850292 -25.374557
-24.995214 49.914497 -28.612965
-14.536436 42.489235 -18.170799
-22.80653 46.217003 -30.263897
-8.453527 40.711739 -9.00938
-32.77536 42.543491 -39.108593
-41.1147 30.291084 -65.681854
-32.77536 42.543491 -39.108593
-41.1147 30.291084 -65.681854
-25.544369 40.498104 -27.482702
-16.844671 36.46767 -15.235397
-25.544369 40.498104 -27.482702
-16.844671 36.46767 -15.235397
-7.862461 37.472839 -3.875596
-36.436211 2.163391 -101.406227
-34.883083 1.920834 -101.625557
5.27597 48.778538 13.657825
5.102918 46.842007 14.993729
-2E-06 46.843052 14.596592
-1E-06 48.778538 13.306587
-1E-06 50.623878 12.896805
5.299368 50.580338 13.228762
8.49288 50.779781 14.434504
9.593616 49.436813 14.933201
10.494472 47.456833 17.578979
6.511691 60.279461 42.827667
6.462627 59.742397 31.344921
-8E-06 60.388626 30.615662
-1.3E-05 60.948502 41.923115
-1.8E-05 60.582294 53.597569
6.356428 59.97834 54.53175
11.788399 58.495869 56.066158
12.082404 58.691654 44.362404
11.959503 58.217979 32.673252
4.974944 49.771633 80.855789
4.783296 52.236824 78.727097
-2.8E-05 52.221382 79.411736
-2.9E-05 49.737465 81.635513
-3E-05 47.140343 82.075783
5.075874 47.148888 81.320122
10.460945 47.687737 78.066063
9.079572 50.473484 78.544746
7.846938 52.264313 77.424446
12.603921 43.686905 69.49482
14.566522 47.254158 69.700699
8.839182 43.951912 76.694038
7.607608 41.776501 74.130592
9.572864 40.622597 68.463531
11.57197 39.937469 58.760933
15.235027 43.415127 59.512074
17.343071 47.240429 59.581463
4.55055 44.040253 80.092903
-2.9E-05 44.040253 80.842255
-2.7E-05 40.921471 76.563736
4.278061 41.064281 76.027313
16.122772 43.306496 47.762672
18.275307 47.217922 47.375221
12.2544 39.690041 47.549316
11.557238 39.849163 36.355988
15.222048 43.350948 36.034458
17.346903 47.190762 35.298473
12.487747 43.538456 26.115288
14.541526 47.163067 25.567753
9.417562 40.383686 26.708267
7.413094 41.486145 21.372093
8.644849 43.734818 19.147121
4.418329 43.805847 16.271925
4.102693 40.708313 19.364746
-3E-06 40.573959 18.909771
-2E-06 43.810028 15.857567
5.137498 38.839512 67.976524
6.210565 37.448277 57.548306
-2.4E-05 38.268276 67.869087
-1.9E-05 36.450798 56.826622
6.578961 36.972897 46.350449
6.201377 37.367863 35.507629
-1.4E-05 35.839153 45.504639
-1E-05 36.382336 34.790977
5.036498 38.587662 26.144516
-6E-06 38.029335 25.573462
14.640574 55.280708 26.062668
11.433209 56.979004 24.614967
15.524863 56.229614 33.741199
17.464174 53.733582 34.500648
16.050608 53.094666 26.878513
14.323341 52.422043 22.673599
13.377433 53.695457 21.028498
10.69026 55.070438 19.273924
15.873369 50.368629 26.267851
18.082899 50.686134 34.903473
13.426617 50.424721 20.529816
11.99461 51.411644 17.354383
9.917388 52.587975 15.736496
5.534987 53.212318 14.671083
-1E-06 53.38649 14.276493
-3E-06 56.341557 17.526651
5.876719 55.993217 18.02483
6.218451 58.241783 23.330044
-5E-06 58.76429 22.728275
15.77114 56.604404 45.348408
15.371427 56.464268 56.932667
17.367708 53.88826 57.652981
17.903038 53.989815 46.060032
18.803246 50.820011 46.771652
18.03944 50.772556 58.748833
14.31775 55.868416 64.542351
11.063972 57.726463 64.168205
10.117282 56.305756 69.919273
12.908864 54.600037 69.900604
14.042288 52.978558 69.655243
15.858688 53.453789 65.375839
11.443506 52.442341 74.73053
9.156471 54.156078 74.570061
13.217037 50.862144 73.193947
15.796528 50.546078 67.711494
5.98762 58.964428 63.210625
-2.1E-05 59.428398 62.585968
-2.4E-05 57.542892 69.585869
5.512042 57.256363 69.73143
5.036464 54.872784 74.961281
-2.7E-05 54.981876 75.294823
-5.275974 48.778538 13.65782
-5.102921 46.842007 14.993723
-10.494476 47.456833 17.57897
-9.593619 49.436813 14.933191
-8.492884 50.779781 14.4345
-5.299369 50.580338 13.228758
-6.511717 60.279461 42.827667
-6.462643 59.742397 31.344917
-11.95952 58.217972 32.673241
-12.08243 58.69165 44.362404
-11.788435 58.495869 56.066158
-6.356463 59.97834 54.53175
-4.975002 49.771633 80.855789
-4.783352 52.236824 78.727097
-7.846992 52.264309 77.424446
-9.079627 50.47348 78.544746
-10.461002 47.687729 78.066063
-5.075933 47.14888 81.320122
-12.603966 43.686901 69.494797
-8.839236 43.951912 76.694046
-14.566566 47.254158 69.700676
-17.343113 47.240429 59.581444
-15.235067 43.415123 59.512054
-11.57201 39.937466 58.760933
-9.572912 40.622593 68.463531
-7.607659 41.776497 74.130592
-4.550608 44.040253 80.092918
-4.278115 41.064281 76.027321
-16.122803 43.306488 47.762653
-18.275339 47.217922 47.375198
-17.346924 47.190758 35.298466
-15.222069 43.350945 36.034447
-11.55726 39.849163 36.35598
-12.254431 39.690041 47.549297
-12.487761 43.538452 26.115276
-14.541538 47.163067 25.567745
-8.644855 43.734814 19.147116
-7.413102 41.486145 21.372082
-9.417576 40.383682 26.708258
-4.418333 43.805847 16.271919
-4.1027 40.708313 19.36474
-5.137545 38.839512 67.976524
-6.210603 37.448277 57.548306
-6.57899 36.972897 46.350449
-6.201398 37.367863 35.507622
-5.036511 38.587662 26.144516
-14.640588 55.280704 26.062658
-15.524884 56.229614 33.741192
-11.433221 56.978996 24.614956
-10.690265 55.070435 19.273914
-13.377442 53.695454 21.028488
-14.323351 52.422043 22.673592
-16.050621 53.094658 26.878502
-17.464195 53.733578 34.500641
-15.87338 50.368622 26.267841
-18.08292 50.686131 34.903461
-13.42662 50.424713 20.529808
-11.994615 51.411636 17.354376
-9.917392 52.587975 15.736488
-5.534991 53.212315 14.671078
-5.876725 55.993214 18.024826
-6.218462 58.241783 23.330038
-15.771166 56.604401 45.348389
-17.903069 53.989815 46.060013
-17.367743 53.888252 57.652962
-15.371462 56.464268 56.932648
-18.803276 50.820007 46.771633
-18.039482 50.772556 58.748817
-14.317795 55.868412 64.542336
-15.858734 53.453785 65.375816
-14.042334 52.978558 69.655228
-12.908909 54.600033 69.900581
-10.117327 56.305752 69.919273
-11.064018 57.72646 64.168205
-11.443559 52.442337 74.73053
-13.217089 50.862141 73.193932
-9.156525 54.156078 74.570053
-15.796574 50.546074 67.711479
-5.987664 58.964428 63.210625
-5.512091 57.256363 69.731422
-5.036518 54.872784 74.961281
-0.036661 43.662258 -23.736126
-0.033607 41.009789 -18.594803
-0.550989 40.605965 -18.742615
-0.068285 43.602036 -24.397346
-0.740557 47.026478 -29.0093
-0.033602 46.678318 -28.188993
1.6E-05 46.794373 -28.399578
1.4E-05 43.885162 -23.703053
1.2E-05 41.085247 -18.48037
-0.024433 48.298454 -29.19758
-0.033602 46.678318 -28.188993
-0.740557 47.026478 -29.0093
-1.211861 48.599411 -28.469116
1.6E-05 49.754929 -27.794224
1.7E-05 48.538994 -29.273817
1.6E-05 46.794373 -28.399578
-0.024439 39.723209 -16.297764
1.1E-05 39.66848 -16.027651
1.1E-05 38.883957 -14.414907
-0.865069 39.500412 -16.137543
-0.550989 40.605965 -18.742615
-0.033607 41.009789 -18.594803
1.2E-05 41.085247 -18.48037
-0.089807 43.792221 -26.281498
-0.068285 43.602036 -24.397346
-0.251583 41.94799 -25.144617
-0.589182 44.605007 -29.845068
-0.450652 45.758877 -29.333389
-0.740557 47.026478 -29.0093
-7.192308 46.414421 -29.314434
-6.369755 46.921619 -29.237782
-4.355343 46.673134 -30.492975
-6.336468 46.088028 -30.027119
-7.355821 44.804955 -29.35828
-7.997393 45.252972 -28.384064
-8.45972 46.70549 -27.232124
-1.516717 46.568947 -30.485451
-0.450652 45.758877 -29.333389
-0.589182 44.605007 -29.845068
-2.121737 46.166836 -30.79475
-2.633532 47.020145 -30.094276
-0.740557 47.026478 -29.0093
-4.590011 47.203346 -29.305676
-4.688917 47.621071 -28.366383
-5.919268 45.760361 -30.231535
-4.302159 46.171227 -30.646584
-4.338394 45.854031 -30.473577
-5.721388 45.430092 -30.169991
-6.493771 44.242966 -29.836624
-6.882687 44.491241 -29.773533
-2.493414 45.812382 -30.751059
-1.210131 44.562599 -30.536037
-1.616087 44.320007 -30.335094
-2.748417 45.485081 -30.52327
-7.265184 23.142334 -46.148518
-7.944699 23.796064 -45.082146
-10.112067 24.886055 -43.852261
-8.032311 23.514225 -45.861343
-6.808551 22.970901 -46.701965
-6.064869 22.658052 -47.016907
-6.517246 23.414501 -45.931805
-11.680996 26.930735 -40.866524
-12.505087 28.191568 -39.283611
-13.651831 28.464777 -39.919838
-12.173337 26.689259 -41.899601
-10.326387 26.156044 -41.594418
-10.781685 28.394615 -38.700172
-8.718949 25.021046 -43.135666
-8.100397 25.458828 -43.169525
-8.319749 23.878286 -45.882797
-10.444218 25.319103 -44.238918
-10.209437 25.946804 -44.629467
-8.121835 24.061028 -46.173187
-6.899942 23.344849 -46.96064
-6.553834 22.940662 -47.080624
-12.331538 27.07634 -42.494884
-14.00536 29.115707 -40.442112
-13.672737 29.950237 -41.02824
-12.22295 27.946064 -42.807728
-11.914931 29.152504 -42.993534
-10.669604 28.418541 -44.012867
-12.76103 30.774231 -41.856018
-11.315846 31.450424 -42.396229
-7.432902 23.888947 -46.692802
-6.222907 23.139286 -47.423149
-8.165238 24.924623 -46.118484
-6.745233 24.261288 -46.853699
-9.081877 26.927912 -45.254799
-8.453645 27.100315 -45.15062
-16.295736 38.555927 -33.404686
-15.352644 37.432762 -35.355984
-16.106714 34.859764 -35.967323
-17.08342 37.526497 -32.805416
-16.779881 40.214523 -29.813477
-15.559106 40.778961 -31.372034
-14.05435 39.672176 -33.676544
-13.96655 32.178551 -40.014984
-15.064019 32.053761 -38.67347
-13.964148 33.654942 -39.174206
-14.053575 35.769306 -37.814331
-12.935456 35.567307 -37.920288
-15.489339 31.402929 -37.872021
-16.680281 33.887344 -35.034245
-15.121572 30.513641 -37.55862
-16.187254 32.893742 -34.377953
-17.475002 36.518291 -32.178406
-17.323086 39.321762 -28.855278
-17.253792 35.748936 -31.406017
-16.911837 38.250378 -28.234356
-13.839783 29.673471 -37.681259
-13.693281 30.657471 -36.029953
-16.203087 35.436054 -30.370632
-15.269238 37.15007 -27.687628
-15.011612 33.904243 -31.620861
-13.362478 35.687504 -29.030973
-13.551384 32.05579 -33.618847
-12.362571 32.33165 -34.017879
-5.742169 22.693014 -47.486488
-6.156663 23.663748 -46.656891
-8.069224 26.381268 -44.148346
-10.448846 30.071854 -40.450562
-10.781685 28.394615 -38.700172
-8.100397 25.458828 -43.169525
-12.264524 33.961784 -36.053249
-12.81543 37.729298 -31.318466
-13.362478 35.687504 -29.030973
-12.362571 32.33165 -34.017879
-13.284377 39.686699 -23.76198
-11.552193 39.275269 -24.377167
-8.255319 40.871773 -19.139082
-11.496016 41.882458 -19.29516
-13.433925 43.497887 -19.716629
-15.143089 41.095818 -24.093019
-15.674126 42.323738 -24.615643
-14.070577 44.779472 -20.205072
-13.385813 46.332458 -20.891617
-15.136816 43.233879 -25.636433
-11.400743 41.042786 -26.632153
-12.317636 43.10339 -28.418228
-10.21489 46.296478 -24.956934
-9.469722 43.193008 -23.502428
-8.255319 40.871773 -19.139082
-11.552193 39.275269 -24.377167
-13.790493 43.660946 -27.498711
-11.965536 46.470181 -23.744909
-11.059885 48.50452 -22.081524
-11.965536 46.470181 -23.744909
-13.385813 46.332458 -20.891617
-12.391919 48.494102 -20.10944
-11.756699 49.904442 -19.99148
-10.605812 49.947548 -21.464184
-8.946759 50.077362 -22.759884
-9.990905 48.59893 -23.638737
-10.21489 46.296478 -24.956934
-9.565841 48.399086 -24.905029
-8.380735 49.725719 -24.466274
-7.420105 49.442886 -25.723259
-8.310251 48.353004 -25.981581
-9.283789 46.371132 -25.224712
-4.791413 50.130062 -25.268728
-4.74224 50.430111 -24.187256
1.5E-05 50.427547 -25.025618
1.5E-05 50.165253 -26.059196
-4.780984 49.775574 -26.516811
-4.749697 48.593864 -27.336733
-1.211861 48.599411 -28.469116
-0.720435 40.095943 -25.178753
-0.251583 41.94799 -25.144617
-1.546965 39.040783 -21.348885
-2.299316 38.360523 -23.284418
-1.836549 38.75795 -25.786217
-1.913607 39.824577 -28.667452
-0.838855 41.783394 -28.834631
-4.051255 39.004063 -20.412451
-3.934641 40.069828 -18.147516
-8.255319 40.871773 -19.139082
-6.827936 40.302811 -21.428806
-6.363179 39.338799 -23.770926
-3.967896 38.134224 -23.038542
-3.940109 38.404766 -25.956623
-6.147326 39.399178 -26.307909
-5.980777 39.885098 -28.463928
-3.926348 39.131416 -28.454506
-3.885066 39.739666 -29.389593
-5.663938 40.354496 -29.355236
-5.271951 40.749775 -29.673508
-3.830025 40.195747 -29.636261
-2.437573 40.795578 -29.701635
-2.138605 40.474854 -29.609806
-6.730361 42.302246 -29.475819
-7.180597 42.234589 -28.845322
-6.251913 42.387314 -29.652451
-1.16941 42.452232 -29.955675
-1.606033 42.481476 -29.912579
-10.135583 50.963329 -20.83503
-8.277303 51.16959 -21.858952
-11.162674 50.76683 -19.561073
-10.83557 51.201485 -18.864794
-9.919885 51.569 -19.696442
-8.038978 51.924625 -20.664078
-4.59472 51.224678 -23.347736
1.5E-05 51.214439 -24.208347
-4.4472 52.019253 -22.043545
1.4E-05 52.001324 -22.836243
-7.57441 42.29541 -27.255943
-7.981517 42.575985 -25.3433
-8.471634 43.21991 -23.581211
-9.469722 43.193008 -23.502428
-3.362508 39.493439 -16.453182
-6.046951 39.44865 -15.584536
-0.865069 39.500412 -16.137543
1.1E-05 38.883957 -14.414907
-2.938438 38.747818 -13.831079
-5.071458 38.860584 -13.299212
-13.606138 48.626923 -17.292744
-14.001065 47.137032 -16.783045
-14.91681 47.355812 -13.275402
-14.630069 48.777027 -14.021852
-14.078941 50.052574 -14.592241
-13.009788 49.974655 -17.578901
-14.041161 45.883492 -16.403347
-13.239933 44.560009 -15.887138
-13.903458 44.565617 -11.363848
-14.805557 46.072845 -12.929245
-14.070577 44.779472 -20.205072
-13.433925 43.497887 -19.716629
-11.117914 42.715904 -15.036341
-8.798285 40.736713 -13.756134
-9.155027 40.900249 -8.835009
-11.508728 43.061783 -10.905884
-11.496016 41.882458 -19.29516
-3.235129 38.292816 -9.513474
9E-06 38.450626 -9.615402
7E-06 38.344734 -5.093606
-3.767617 38.187939 -4.862284
-7.952166 37.896828 -3.825677
-5.878347 38.37112 -9.968569
-10.229403 51.770893 -17.545851
-11.476643 51.23632 -17.114037
-12.349728 51.27066 -14.422773
-10.736032 51.843246 -14.871391
-8.206719 52.293983 -15.6448
-8.054892 52.1763 -18.416452
-12.351698 50.741013 -17.322191
-13.391428 50.778778 -14.527802
-4.398027 52.284111 -19.52467
-4.418165 52.420315 -16.514147
1.2E-05 52.402386 -16.972799
1.3E-05 52.263618 -20.138178
-7.405147 39.200058 -11.761824
-8.176347 39.09927 -6.436369
-2.458975 40.663647 27.656878
-2.805159 41.975254 26.182739
-4.184073 41.635208 24.921421
-4.3032 40.663647 25.67271
-3.466061 39.692081 24.954971
-2.112789 39.352036 26.456879
-7E-06 39.352036 26.936745
-7E-06 40.663647 28.243139
-7E-06 41.975258 26.643112
-4.917941 40.663647 22.065262
-5.463933 40.969715 18.359556
-4.241667 39.407589 17.866112
-3.726224 39.352036 21.983608
-4.880173 41.975254 22.268589
-5.320215 42.518585 18.64925
-1.997393 38.914833 22.135952
-2.300548 38.851551 17.477997
-3E-06 38.825054 17.310268
-5E-06 38.914833 22.270626
-2.920552 42.41246 22.481277
-3.163387 43.034878 18.426119
-5E-06 42.41246 22.589958
-3E-06 43.034878 18.18635
-3.891896 44.902145 15.890909
-4.611397 47.116085 14.232342
-8.956923 46.629261 14.651684
-6.640347 44.148582 16.294308
-2E-06 44.902145 15.534946
-1E-06 47.116085 13.884365
-3.176469 38.678421 15.199022
-4.00997 38.472984 13.587429
-1E-06 38.300476 13.707952
-2E-06 38.555714 15.121159
-5.727515 39.560993 15.527832
-9.293072 39.259899 13.397068
-7.084183 41.864815 16.06987
-9.350854 43.080391 14.916006
-4.668552 50.638348 10.823025
0 50.639488 10.614349
0 51.11433 9.721691
-4.61016 51.112614 9.870863
-8.512327 51.079792 10.03414
-8.611022 50.601936 11.06588
-8.814939 49.893017 11.993454
-4.76953 49.936848 11.656805
0 49.937134 11.37779
-4.680235 51.589237 8.365417
1E-06 51.590378 8.228609
2E-06 52.078873 6.168075
-4.783976 52.078587 6.295047
-8.905198 51.974052 6.475814
-8.673266 51.528889 8.53483
-11.101324 50.497276 10.959736
-12.614164 50.43969 10.274221
-13.019865 49.683907 11.066845
-11.412101 49.762665 11.887335
-10.998511 50.988201 9.927269
-12.199556 50.827793 9.616835
-13.624247 50.544514 8.778965
-14.299 50.69854 6.592842
-14.835131 49.947701 6.764016
-14.09707 49.79483 9.260378
-12.840687 51.033192 8.49502
-13.416906 51.212635 6.511486
-11.291889 51.352428 8.495836
-11.700908 51.661606 6.510218
-14.80586 50.788551 3.834735
-13.806137 51.385845 3.828554
-13.927456 51.498508 0.336112
-15.009395 50.819427 0.381107
-15.700333 49.987206 0.447906
-15.425465 49.994755 3.873841
-11.945007 51.987381 3.815194
-9.019484 52.440125 3.76495
-8.996006 52.822662 0.132186
-11.980629 52.241474 0.253073
-4.478573 52.828938 -13.735023
1E-05 52.818687 -14.198748
-8.376137 52.647026 -12.87784
-8.574871 52.974934 -9.449209
-4.573919 53.205219 -10.264393
9E-06 53.202652 -10.72356
-14.774179 50.796021 -3.89158
-13.699944 51.4963 -4.075953
-13.299911 51.428391 -8.416538
-14.345999 50.764999 -8.156624
-15.063538 49.984024 -7.81237
-15.491999 49.976269 -3.655732
-11.764219 52.335594 -4.333837
-8.814648 53.0172 -4.692534
-11.429869 52.273846 -8.84033
-13.970637 50.773014 -11.58732
-14.67802 50.032581 -11.397301
-12.90366 51.343933 -11.694542
-11.111662 52.060314 -12.1612
-3.957014 38.23917 -1.380403
5E-06 38.309437 -1.540933
4E-06 38.309437 1.548372
-3.948606 38.331982 1.602071
-7.826075 37.699364 1.672204
-7.865844 37.607689 -1.144707
-4.154657 38.317337 10.931805
0 38.253014 11.075308
-8.298233 38.16629 10.832731
-7.964966 37.697525 7.646677
-3.99858 38.219582 7.736128
1E-06 38.29533 7.855317
-3.965472 38.285103 4.636616
3E-06 38.309437 4.680064
-7.876068 37.676121 4.603116
-11.769209 44.344219 14.511522
-11.915641 46.968842 13.964773
-13.869068 47.191582 12.870487
-13.801678 45.262939 13.661989
-13.444595 43.119045 14.240595
-11.370721 41.30537 14.662331
-15.586515 45.761101 -9.3701
-15.782349 47.346992 -9.83202
-15.023112 44.227425 -8.965195
-15.410963 43.337685 -5.251127
-16.210293 45.316788 -5.821365
-16.465895 47.255024 -6.34932
-16.541235 45.235077 -2.241833
-16.835648 47.224369 -2.723727
-15.677448 43.151024 -1.684216
-15.665797 43.118114 1.710217
-16.531904 45.228844 1.245091
-16.85878 47.227512 0.85469
-14.962426 45.403782 11.178345
-14.41773 43.406162 11.762077
-15.094704 47.2593 10.4708
-15.877512 47.248817 7.37587
-15.642939 45.223278 7.903797
-14.868989 43.073769 8.348745
-16.207603 45.22773 4.601555
-16.502472 47.236938 4.195861
-15.364483 43.099785 5.017898
-4.826584 52.591042 3.648117
3E-06 52.591042 3.573054
5E-06 53.016388 -0.115038
-4.800677 53.016388 -0.026355
-16.146246 48.803707 3.985969
-15.513249 48.788509 7.034735
-16.474155 48.784832 0.596356
-14.713674 48.692581 9.851974
-13.529472 48.618134 11.990759
-4.698872 53.244404 -5.179348
7E-06 53.244404 -5.454783
-15.39123 48.807655 -10.682251
-15.947932 48.785816 -7.135563
-16.35848 48.778538 -3.243425
-11.742611 48.667408 13.004166
-8.969665 48.750759 13.180264
-4.82721 48.778538 12.807108
-1E-06 48.778538 12.483221
0.036689 43.662262 -23.736126
0.068314 43.602036 -24.397346
0.551013 40.605965 -18.742615
0.033631 41.009789 -18.594803
0.033635 46.678318 -28.188993
0.740591 47.026478 -29.0093
0.024467 48.298454 -29.19758
1.211895 48.599415 -28.469112
0.740591 47.026478 -29.0093
0.033635 46.678318 -28.188993
0.024461 39.723209 -16.297764
0.865091 39.500416 -16.137543
0.033631 41.009789 -18.594803
0.551013 40.605965 -18.742615
0.089838 43.792221 -26.281498
0.251612 41.947994 -25.144617
0.068314 43.602036 -24.397346
0.740591 47.026478 -29.0093
0.450686 45.758877 -29.333389
0.589217 44.605007 -29.845074
7.192344 46.414417 -29.314425
6.336504 46.088024 -30.027115
4.35538 46.673134 -30.492975
6.369791 46.921619 -29.237778
8.459753 46.705482 -27.232121
7.997426 45.252968 -28.384058
7.355856 44.804947 -29.358274
1.516753 46.568951 -30.485451
2.121774 46.16684 -30.79475
0.589217 44.605007 -29.845074
0.450686 45.758877 -29.333389
0.740591 47.026478 -29.0093
2.633568 47.020149 -30.094276
4.590045 47.203346 -29.305679
4.688951 47.621071 -28.366383
5.919304 45.760361 -30.231541
5.721424 45.430092 -30.169991
4.33843 45.854031 -30.473577
4.302196 46.171227 -30.646584
6.882722 44.491241 -29.773529
6.493806 44.242958 -29.836613
2.49345 45.812386 -30.751053
2.748453 45.485081 -30.523273
1.616122 44.320011 -30.335094
1.210166 44.562599 -30.536037
7.265233 23.14234 -46.148521
8.032361 23.514229 -45.861343
10.112114 24.886059 -43.852261
7.944749 23.796064 -45.082153
6.517297 23.414507 -45.931808
6.064919 22.65806 -47.016914
6.8086 22.970905 -46.701973
11.681043 26.930735 -40.866524
12.173384 26.689259 -41.899601
13.651873 28.464785 -39.919827
12.505129 28.19157 -39.283607
10.781728 28.394619 -38.700169
10.326434 26.156046 -41.594421
8.718995 25.021046 -43.135666
8.100444 25.45883 -43.169529
8.319798 23.878288 -45.882797
8.121883 24.061029 -46.173195
10.209484 25.946804 -44.629467
10.444264 25.319107 -44.238918
6.553885 22.940666 -47.080627
6.899993 23.344852 -46.960648
12.331583 27.076342 -42.494865
12.222998 27.946072 -42.807728
13.672783 29.950241 -41.028221
14.005404 29.115715 -40.442101
11.914978 29.152512 -42.993534
10.669651 28.41855 -44.012871
11.315894 31.450428 -42.396236
12.761077 30.774235 -41.855999
7.432952 23.888948 -46.692802
6.222958 23.13929 -47.423157
6.745284 24.261293 -46.853703
8.165289 24.924623 -46.118481
9.081926 26.927912 -45.254807
8.453694 27.100317 -45.150627
16.295771 38.555931 -33.404678
17.083456 37.526505 -32.805412
16.106754 34.859772 -35.967319
15.352684 37.432766 -35.35598
14.054386 39.67218 -33.676537
15.559143 40.778969 -31.372025
16.779917 40.214531 -29.813469
13.966591 32.178558 -40.01498
15.064059 32.053764 -38.673466
13.96419 33.654942 -39.174202
14.053617 35.76931 -37.814327
12.935497 35.567307 -37.92028
15.489379 31.402935 -37.872009
16.680323 33.887348 -35.034241
16.187296 32.893745 -34.377949
15.121613 30.513647 -37.558617
17.475039 36.518295 -32.178398
17.323124 39.321766 -28.855274
16.911873 38.250381 -28.234344
17.253826 35.74894 -31.406013
13.839825 29.673477 -37.681252
13.693324 30.657473 -36.029945
16.203125 35.436062 -30.370619
15.269271 37.150074 -27.687618
13.362514 35.687508 -29.030964
15.011649 33.904247 -31.620861
13.551424 32.055798 -33.618847
12.362609 32.331654 -34.017876
5.74222 22.69302 -47.486488
6.156714 23.663752 -46.656902
8.069271 26.381271 -44.148354
10.448893 30.071859 -40.450554
8.100444 25.45883 -43.169529
10.781728 28.394619 -38.700169
12.264565 33.961792 -36.053238
12.815467 37.729301 -31.318457
12.362609 32.331654 -34.017876
13.362514 35.687508 -29.030964
13.28441 39.686703 -23.761971
11.496042 41.882458 -19.295153
8.255346 40.871773 -19.139078
11.552225 39.275269 -24.377157
15.143122 41.095818 -24.09301
13.43395 43.497887 -19.716619
15.674158 42.323742 -24.615633
14.070601 44.779472 -20.205063
15.136848 43.233887 -25.636421
13.385839 46.332466 -20.891605
11.400775 41.042789 -26.632145
9.469753 43.193008 -23.502422
10.214922 46.296482 -24.956924
12.317673 43.103394 -28.418219
11.552225 39.275269 -24.377157
8.255346 40.871773 -19.139078
13.790525 43.66095 -27.498699
11.965569 46.470181 -23.7449
11.059915 48.504524 -22.081516
12.391944 48.494106 -20.109432
13.385839 46.332466 -20.891605
11.965569 46.470181 -23.7449
10.214922 46.296482 -24.956924
9.990935 48.59893 -23.638727
8.946787 50.077366 -22.759872
10.605836 49.947552 -21.464172
11.756723 49.904446 -19.99147
9.565871 48.39909 -24.905022
8.380765 49.725719 -24.466263
9.283819 46.371136 -25.224701
8.310284 48.353004 -25.981575
7.420135 49.442883 -25.723255
4.791443 50.130062 -25.268728
4.742269 50.430111 -24.187256
4.781015 49.775574 -26.516808
4.74973 48.593864 -27.336727
1.211895 48.599415 -28.469112
0.720463 40.095943 -25.178753
1.546989 39.040787 -21.348885
0.251612 41.947994 -25.144617
0.838887 41.783394 -28.834631
1.913637 39.824577 -28.667452
1.836576 38.757946 -25.786217
2.299341 38.360519 -23.284424
4.051281 39.004063 -20.412445
6.827963 40.302811 -21.428797
8.255346 40.871773 -19.139078
3.934666 40.069832 -18.147514
3.967921 38.134228 -23.038542
6.363205 39.338795 -23.77092
3.940136 38.404766 -25.956623
6.147354 39.399178 -26.307903
3.926377 39.131416 -28.454506
5.980808 39.885098 -28.463928
3.885096 39.739666 -29.389593
5.663968 40.354496 -29.355236
2.138636 40.474854 -29.609806
2.437604 40.795586 -29.701635
3.830055 40.195747 -29.636265
5.271981 40.749775 -29.673508
6.730392 42.302246 -29.475815
7.180628 42.234581 -28.845318
6.251945 42.38731 -29.652445
1.169443 42.452232 -29.955675
1.606066 42.481476 -29.912579
10.135607 50.963333 -20.83502
8.27733 51.16959 -21.858942
8.039005 51.924625 -20.66407
9.919909 51.569004 -19.69643
10.835594 51.201485 -18.864784
11.162699 50.76683 -19.561064
4.594748 51.224686 -23.347736
4.447227 52.019257 -22.043545
7.574441 42.295403 -27.255938
7.981546 42.575985 -25.343292
8.471663 43.21991 -23.581207
9.469753 43.193008 -23.502422
3.362531 39.493443 -16.453178
6.046975 39.448654 -15.58453
5.071478 38.860588 -13.299206
2.938459 38.747818 -13.831079
0.865091 39.500416 -16.137543
13.606162 48.626923 -17.292736
14.630087 48.777027 -14.021845
14.916829 47.35582 -13.275393
14.001092 47.137032 -16.783037
13.009811 49.974663 -17.578892
14.07896 50.052574 -14.592232
14.041185 45.883492 -16.403339
14.805576 46.072845 -12.929241
13.903476 44.565613 -11.363842
13.239957 44.560005 -15.887131
13.43395 43.497887 -19.716619
14.070601 44.779472 -20.205063
11.117933 42.715897 -15.036333
11.508747 43.061783 -10.905878
9.155044 40.900249 -8.834997
8.798306 40.73671 -13.756128
11.496042 41.882458 -19.295153
3.235145 38.29282 -9.51347
3.767629 38.187946 -4.862277
5.87836 38.37112 -9.968559
7.952175 37.896839 -3.825663
10.229426 51.770893 -17.545841
10.736051 51.843254 -14.871382
12.349747 51.270668 -14.422764
11.476667 51.23632 -17.114027
8.054916 52.176304 -18.416449
8.206741 52.293983 -15.644794
12.351722 50.74102 -17.322184
13.391447 50.778778 -14.527792
4.398053 52.284111 -19.524666
4.418187 52.420319 -16.514143
7.405165 39.200058 -11.761816
8.17636 39.099277 -6.436355
2.458961 40.663647 27.656878
4.303187 40.663647 25.67271
4.184061 41.635208 24.921415
2.805147 41.975258 26.182739
2.112776 39.352039 26.456879
3.466049 39.692085 24.954971
4.917931 40.663647 22.065262
3.726214 39.352039 21.983608
4.241662 39.407589 17.866117
5.463927 40.969715 18.35956
5.32021 42.518593 18.649256
4.880163 41.975258 22.268589
1.997383 38.914833 22.135952
2.300543 38.851551 17.477997
2.920543 42.41246 22.481277
3.163381 43.034882 18.426123
3.891891 44.902145 15.890915
6.640343 44.14859 16.294312
8.95692 46.629265 14.651688
4.611394 47.116085 14.232346
3.176465 38.678421 15.199024
4.009966 38.472988 13.587429
9.293066 39.259903 13.397072
5.72751 39.560997 15.527834
7.084179 41.864815 16.069874
9.350851 43.080399 14.916016
4.668553 50.638348 10.823029
4.610161 51.112614 9.870869
4.769529 49.936848 11.656811
8.814938 49.893017 11.99346
8.611022 50.601936 11.065886
8.51233 51.079796 10.034145
4.680237 51.589237 8.365421
4.78398 52.078587 6.295052
8.673268 51.528893 8.534838
8.905203 51.974052 6.475822
11.101324 50.497276 10.959745
11.412101 49.762669 11.887344
13.019865 49.683907 11.066854
12.614164 50.439697 10.274231
12.199556 50.827793 9.616844
10.998511 50.988205 9.927279
13.624247 50.544518 8.778975
14.09707 49.79483 9.260391
14.835136 49.947701 6.764029
14.299004 50.69854 6.592855
13.416911 51.212635 6.511497
12.840692 51.033195 8.495031
11.291894 51.352432 8.495846
11.700912 51.661606 6.510228
14.805864 50.788555 3.834748
13.806142 51.385845 3.828565
15.42547 49.994755 3.873853
15.700342 49.987206 0.447919
15.009405 50.819427 0.38112
13.927465 51.498508 0.336123
11.945013 51.987385 3.815204
9.01949 52.440128 3.764958
11.980639 52.241478 0.253083
8.996016 52.822662 0.132193
4.478593 52.828938 -13.73502
4.573937 53.205219 -10.264391
8.574887 52.974937 -9.449203
8.376157 52.647034 -12.877836
14.774194 50.796021 -3.891567
13.69996 51.4963 -4.075942
15.492014 49.976269 -3.65572
15.063552 49.984032 -7.812357
14.346014 50.764999 -8.156611
13.299925 51.428391 -8.416529
11.764233 52.335602 -4.333827
8.81466 53.017204 -4.692527
11.429883 52.273849 -8.840321
13.970656 50.773014 -11.587313
14.678038 50.032581 -11.397293
12.903679 51.343933 -11.694532
11.111681 52.060318 -12.16119
3.968598 38.188904 -1.397199
3.962461 38.213783 1.569023
7.899535 37.555492 -1.172605
7.87576 37.561543 1.61748
4.154655 38.317341 10.931808
3.998582 38.219589 7.736128
7.964964 37.697533 7.646681
8.29823 38.166298 10.832731
3.967616 38.216839 4.620357
7.891526 37.589142 4.576256
11.769209 44.344223 14.51153
13.801678 45.262939 13.662001
13.869071 47.191582 12.870497
11.915642 46.968842 13.964785
11.370718 41.305374 14.662338
13.444594 43.119045 14.240604
15.564681 45.80917 -9.34882
15.782368 47.346996 -9.832006
16.465908 47.255024 -6.349307
16.161251 45.398693 -5.7794
15.355194 43.470455 -5.194569
14.995485 44.312378 -8.932892
16.512278 45.267532 -2.220593
16.835657 47.224369 -2.723713
16.858789 47.227512 0.854704
16.531921 45.228844 1.245104
15.665813 43.118111 1.710231
15.642662 43.199501 -1.65659
14.936973 45.441307 11.162329
14.395622 43.473793 11.740248
14.810958 43.190987 8.305065
15.583342 45.293633 7.870243
15.877516 47.248817 7.375883
15.094704 47.2593 10.47081
16.172655 45.260307 4.583845
16.502478 47.236942 4.195875
15.325468 43.151684 4.994614
4.826591 52.591042 3.648121
4.800686 53.016388 -0.026351
16.146252 48.803711 3.985983
15.513254 48.788513 7.034748
16.474167 48.784832 0.596369
14.713673 48.692581 9.851984
13.529472 48.618134 11.990768
4.698884 53.244404 -5.179345
15.391247 48.807655 -10.682238
15.947947 48.78582 -7.13555
16.35849 48.778538 -3.243412
11.74261 48.667412 13.004177
8.969663 48.750759 13.180267
4.827208 48.778538 12.807114
-46.271164 1.531703 95.008949
-46.76461 1.53625 95.595398
-45.706635 25.344826 72.26725
-44.217735 21.864653 71.682388
-44.217735 21.864653 71.682388
-42.630775 23.583441 72.403786
-38.007805 38.791588 45.885529
-35.006813 40.427071 46.968121
-40.832996 42.851593 47.051594
-38.007805 38.791588 45.885529
-27.894533 40.00116 24.019119
-24.529448 41.212688 25.878803
-31.263447 44.03286 22.897751
-27.894533 40.00116 24.019119
-19.041416 38.944412 10.549532
-16.892202 36.185253 13.747965
-16.892202 36.185253 13.747965
-15.021791 38.549667 17.424721
-7.836818 37.510185 7.616338
-8.733377 38.783119 14.058718
-7.836818 37.510185 7.616338
-45.980576 1.522093 95.434616
-46.354404 1.525173 95.91938
-42.642372 25.50868 73.146561
-44.193375 26.56064 74.273705
-38.026207 46.452835 49.487366
-34.020012 43.274185 49.345581
-23.852463 45.66534 26.002068
-27.490803 47.561893 22.657654
-17.038656 42.747498 11.400726
-16.275229 42.395702 17.377884
-14.008069 43.827629 15.265949
-14.814499 42.950478 8.258278
-91.220566 1.525741 36.158283
-91.689835 1.535597 35.700882
-69.494812 29.016708 16.604609
-68.56958 26.294464 20.879673
-42.481361 39.89566 11.375366
-43.481174 43.09029 7.140916
-31.322205 42.079697 4.75895
-30.602472 39.044586 8.479048
-42.132568 43.128403 15.82546
-42.481361 39.89566 11.375366
-30.602472 39.044586 8.479048
-30.629358 42.426628 12.431219
-18.601946 37.40123 2.449073
-17.913879 33.995754 5.734082
-17.913879 33.995754 5.734082
-17.972439 37.007431 9.251163
-68.56958 26.294464 20.879673
-67.900253 30.022911 25.301617
-7.84021 37.696907 1.587455
-7.836818 37.510185 7.616338
-7.84021 37.696907 1.587455
-43.639217 47.124172 8.803894
-31.005737 45.981903 5.964517
-18.273924 42.122795 3.615852
-42.38541 47.034637 13.49769
-30.225534 45.562759 10.929562
-17.633224 41.955891 8.642807
-91.546257 1.523614 36.453938
-91.997681 1.532753 36.03746
-71.80365 32.558857 19.391308
-70.668396 33.575249 23.369564
-14.814499 42.950478 8.258278
-15.835382 43.124271 1.760285
-85.15242 1.533599 -44.011589
-84.843201 1.523702 -44.908779
-68.436867 31.073383 -33.371403
-69.635468 27.30448 -30.743372
-42.032516 42.493076 -11.725145
-41.199688 45.852047 -16.359911
-29.960003 42.83606 -10.780939
-31.183691 39.018169 -6.487611
-44.717007 46.254097 -8.089439
-42.032516 42.493076 -11.725145
-31.183691 39.018169 -6.487611
-33.134731 42.476124 -2.754852
-16.956821 37.681206 -6.995739
-17.306765 33.980259 -3.034346
-17.306765 33.980259 -3.034346
-18.389252 37.61285 0.563226
-69.635468 27.30448 -30.743372
-71.078064 30.900894 -28.317753
-7.862461 37.472839 -3.875596
-7.84021 37.696907 1.587455
-7.862461 37.472839 -3.875596
-42.334602 49.718674 -14.892464
-29.921141 46.948833 -8.912165
-18.040421 42.373238 -5.46813
-44.17345 50.397537 -9.933756
-31.598515 47.61021 -4.443057
-18.553303 42.446938 -1.250271
-85.759338 1.534734 -44.28347
-85.457672 1.525159 -45.149879
-71.378036 32.661568 -33.682247
-72.294685 32.256733 -30.32893
-15.835382 43.124271 1.760285
-15.443235 43.046265 -5.121742
85.152435 1.533313 -44.01157
69.63546 27.304209 -30.743353
68.436859 31.073114 -33.371384
84.843231 1.523416 -44.90876
42.032528 42.492939 -11.725147
31.183691 39.018085 -6.487606
29.960022 42.835968 -10.780937
41.199722 45.851898 -16.359919
44.717033 46.253952 -8.089453
33.13475 42.476044 -2.754853
31.183691 39.018085 -6.487606
42.032528 42.492939 -11.725147
17.306746 33.98024 -3.034324
16.956814 37.681183 -6.995723
18.389252 37.612839 0.56324
17.306746 33.98024 -3.034324
69.63546 27.304209 -30.743353
71.078064 30.900623 -28.317734
7.86247 37.472847 -3.875581
7.890438 37.560448 1.532774
7.86247 37.472847 -3.875581
29.921179 46.948753 -8.912172
42.334656 49.718529 -14.892477
18.040436 42.373215 -5.468123
31.598553 47.61013 -4.443068
44.173492 50.397396 -9.933775
18.553322 42.446922 -1.250266
85.457703 1.524873 -45.149857
85.759369 1.534448 -44.283424
71.378036 32.661293 -33.682228
72.294685 32.256462 -30.328915
15.8354 43.124271 1.760299
15.394121 43.178375 -5.068544
91.220627 1.525536 36.158279
68.569572 26.29425 20.879719
69.494797 29.016502 16.604654
91.689896 1.535394 35.700878
42.481365 39.895531 11.375416
30.602465 39.04451 8.479082
31.322222 42.07962 4.75899
43.481197 43.090168 7.140972
42.132568 43.128277 15.825512
30.629358 42.426548 12.431257
30.602465 39.04451 8.479082
42.481365 39.895531 11.375416
17.913858 33.995739 5.734095
18.601944 37.401215 2.449092
17.972422 37.007408 9.251181
17.913858 33.995739 5.734095
68.569572 26.29425 20.879719
67.900246 30.022696 25.30167
7.890438 37.560448 1.532774
7.836817 37.510193 7.616342
7.890438 37.560448 1.532774
31.005768 45.981831 5.964562
43.639252 47.124043 8.803955
18.273937 42.122772 3.615877
30.225548 45.562675 10.929605
42.385426 47.034508 13.497749
17.63323 41.955872 8.642832
91.997742 1.532547 36.03746
91.54631 1.523409 36.453934
71.803642 32.558647 19.391357
70.668396 33.575027 23.369621
14.759562 43.065376 8.216038
15.8354 43.124271 1.760299
46.270981 1.531577 95.008995
44.217606 21.864548 71.682442
45.706512 25.344719 72.267303
46.764427 1.536121 95.595436
44.217606 21.864548 71.682442
42.63065 23.583338 72.403831
38.007736 38.791523 45.885586
35.006741 40.42701 46.968159
40.832932 42.851524 47.051662
38.007736 38.791523 45.885586
27.894505 40.001129 24.019144
24.529419 41.212658 25.878828
31.26342 44.032837 22.897795
27.894505 40.001129 24.019144
16.892193 36.185249 13.747972
19.041414 38.944412 10.549543
15.021776 38.54966 17.424728
16.892193 36.185249 13.747972
7.836817 37.510193 7.616342
8.733372 38.783123 14.058716
7.836817 37.510193 7.616342
46.354221 1.525049 95.919426
45.980392 1.521969 95.434654
42.642242 25.508575 73.146614
44.193249 26.560534 74.273758
38.026142 46.45277 49.487442
34.019943 43.27412 49.345631
23.852434 45.665318 26.0021
27.490778 47.561871 22.657688
17.038656 42.747498 11.40074
16.275217 42.395699 17.377897
14.008062 43.827629 15.265959
14.759562 43.065376 8.216038
2.873914 39.327873 -42.033401
2.37743 39.745464 -41.411636
2.457677 41.238144 -40.74369
3.112248 40.743332 -41.273582
4.100919 41.169147 -40.642761
3.677491 39.686836 -41.33065
3.568651 39.243683 -40.929363
2.929155 38.709793 -41.639748
2.59074 39.298962 -40.987366
2.153875 40.968575 -39.49966
2.137555 42.268036 -39.42981
2.457677 41.238144 -40.74369
2.37743 39.745464 -41.411636
2.625118 39.92477 -39.380318
2.643639 41.039993 -36.261555
2.030967 42.199677 -36.721798
2.120481 43.554707 -37.096344
4.822326 40.793388 -39.269081
5.162286 42.078316 -39.130733
5.974272 43.276703 -36.644905
5.823192 41.932125 -36.368507
5.088801 40.872612 -36.107418
4.192468 39.815239 -39.27317
3.677491 39.686836 -41.33065
4.100919 41.169147 -40.642761
3.382357 39.533012 -39.307541
4.192468 39.815239 -39.27317
5.088801 40.872612 -36.107418
3.845934 40.586433 -36.06427
2.643639 41.039993 -36.261555
2.625118 39.92477 -39.380318
2.59074 39.298962 -40.987366
3.568651 39.243683 -40.929363
3.932297 40.521667 -32.798527
5.34134 40.931664 -32.861019
5.271981 40.749775 -29.673508
3.830055 40.195747 -29.636265
2.437604 40.795586 -29.701635
2.564929 41.023273 -32.96212
2.643639 41.039993 -36.261555
3.845934 40.586433 -36.06427
5.088801 40.872612 -36.107418
6.194866 42.146473 -33.029884
6.344484 43.605682 -33.334435
6.493806 44.242958 -29.836613
6.251945 42.38731 -29.652445
5.271981 40.749775 -29.673508
5.34134 40.931664 -32.861019
5.088801 40.872612 -36.107418
5.823192 41.932125 -36.368507
5.974272 43.276703 -36.644905
1.836425 42.254662 -33.340412
2.564929 41.023273 -32.96212
2.437604 40.795586 -29.701635
1.606066 42.481476 -29.912579
1.616122 44.320011 -30.335094
1.915322 43.643959 -33.802147
2.120481 43.554707 -37.096344
2.030967 42.199677 -36.721798
2.643639 41.039993 -36.261555
3.539769 42.312248 -40.145351
4.35256 42.958664 -39.446175
4.100919 41.169147 -40.642761
3.112248 40.743332 -41.273582
2.457677 41.238144 -40.74369
3.180098 43.009438 -39.522797
4.303072 44.772068 -37.43713
5.102704 43.280853 -38.693596
5.467211 44.418083 -36.733994
5.974272 43.276703 -36.644905
5.162286 42.078316 -39.130733
2.745086 43.426781 -38.935024
3.024741 44.594269 -37.036552
2.137555 42.268036 -39.42981
2.120481 43.554707 -37.096344
2.970157 44.684608 -33.956917
3.024741 44.594269 -37.036552
2.120481 43.554707 -37.096344
1.915322 43.643959 -33.802147
1.616122 44.320011 -30.335094
2.748453 45.485081 -30.523273
4.33843 45.854031 -30.473577
4.409469 45.040688 -33.863003
4.303072 44.772068 -37.43713
5.641798 44.643776 -33.629074
5.467211 44.418083 -36.733994
5.721424 45.430092 -30.169991
6.493806 44.242958 -29.836613
6.344484 43.605682 -33.334435
5.974272 43.276703 -36.644905
-2.873876 39.327873 -42.033401
-3.112208 40.743332 -41.273571
-2.457638 41.238144 -40.74369
-2.377391 39.745461 -41.411636
-2.590703 39.298962 -40.987366
-2.929117 38.709793 -41.639744
-3.568614 39.24369 -40.929363
-3.677453 39.686836 -41.33065
-4.10088 41.169147 -40.642754
-2.153837 40.968575 -39.49966
-2.03093 42.199684 -36.721798
-2.643603 41.039993 -36.261551
-2.625081 39.924774 -39.380318
-2.377391 39.745461 -41.411636
-2.457638 41.238144 -40.74369
-2.137516 42.268036 -39.42981
-2.120441 43.554703 -37.096344
-4.822287 40.793388 -39.269077
-5.823155 41.932125 -36.368507
-5.974235 43.276703 -36.644897
-5.162246 42.078316 -39.130733
-4.10088 41.169147 -40.642754
-3.677453 39.686836 -41.33065
-4.192431 39.815239 -39.27317
-5.088766 40.872612 -36.107418
-3.38232 39.533012 -39.307541
-3.845898 40.586437 -36.064262
-5.088766 40.872612 -36.107418
-4.192431 39.815239 -39.27317
-3.568614 39.24369 -40.929363
-2.590703 39.298962 -40.987366
-2.625081 39.924774 -39.380318
-2.643603 41.039993 -36.261551
-3.932264 40.521667 -32.798523
-3.830025 40.195747 -29.636261
-5.271951 40.749775 -29.673508
-5.341306 40.931664 -32.861015
-5.088766 40.872612 -36.107418
-3.845898 40.586437 -36.064262
-2.643603 41.039993 -36.261551
-2.564895 41.023273 -32.96212
-2.437573 40.795578 -29.701635
-6.194832 42.146484 -33.029888
-6.251913 42.387314 -29.652451
-6.493771 44.242966 -29.836624
-6.344447 43.605682 -33.334438
-5.974235 43.276703 -36.644897
-5.823155 41.932125 -36.368507
-5.088766 40.872612 -36.107418
-5.341306 40.931664 -32.861015
-5.271951 40.749775 -29.673508
-1.83639 42.254658 -33.340412
-1.606033 42.481476 -29.912579
-2.437573 40.795578 -29.701635
-2.564895 41.023273 -32.96212
-2.643603 41.039993 -36.261551
-2.03093 42.199684 -36.721798
-2.120441 43.554703 -37.096344
-1.915285 43.643967 -33.802147
-1.616087 44.320007 -30.335094
-3.539729 42.312248 -40.145351
-4.35252 42.958672 -39.446171
-4.303031 44.772072 -37.43713
-3.180058 43.009445 -39.522793
-2.457638 41.238144 -40.74369
-3.112208 40.743332 -41.273571
-4.10088 41.169147 -40.642754
-5.102664 43.280853 -38.693592
-5.162246 42.078316 -39.130733
-5.974235 43.276703 -36.644897
-5.467171 44.418087 -36.733986
-2.745046 43.426781 -38.93502
-3.024701 44.594269 -37.036552
-2.120441 43.554703 -37.096344
-2.137516 42.268036 -39.42981
-2.970118 44.684608 -33.956909
-1.915285 43.643967 -33.802147
-2.120441 43.554703 -37.096344
-3.024701 44.594269 -37.036552
-4.303031 44.772072 -37.43713
-4.40943 45.040695 -33.862999
-4.338394 45.854031 -30.473577
-2.748417 45.485081 -30.52327
-1.616087 44.320007 -30.335094
-5.64176 44.64378 -33.62907
-5.467171 44.418087 -36.733986
-5.974235 43.276703 -36.644897
-6.344447 43.605682 -33.334438
-6.493771 44.242966 -29.836624
-5.721388 45.430092 -30.169991
22.806515 46.216927 -30.263916
17.893538 47.746094 -33.274868
24.250586 49.168594 -44.615276
29.134773 47.680401 -41.537395
14.53644 42.489204 -18.170799
14.604292 43.99762 -23.471916
37.45031 34.485493 -67.550682
32.608643 35.958553 -70.700989
32.232025 12.355129 -94.109413
34.883076 1.920662 -101.625511
32.775337 42.543392 -39.108597
31.810648 39.115433 -38.959282
25.18812 37.020267 -29.111025
25.54435 40.498039 -27.482702
19.289454 34.955338 -21.602394
16.844666 36.467651 -15.235373
41.114655 30.290926 -65.681839
36.436199 2.163219 -101.406181
37.036102 7.484465 -87.180077
38.059814 26.685959 -65.465599
37.556633 46.480377 -37.325207
40.306503 43.982658 -34.747971
32.248749 41.338188 -22.820017
29.490879 43.850231 -25.374567
25.341801 39.333805 -15.561172
20.402706 39.500874 -13.009985
36.436199 2.163219 -101.406181
40.567127 7.306247 -91.229561
49.099846 32.299847 -61.457756
45.746159 35.217781 -64.18029
28.422253 49.919083 -26.415236
36.340038 50.07502 -39.401482
39.29467 53.300697 -38.417175
30.96817 53.600571 -25.345665
20.394516 45.812782 -13.722061
24.327776 49.641006 -16.709602
45.355858 38.599155 -65.768837
36.534828 1.917663 -102.4879
41.162476 11.026838 -93.212486
49.245972 41.119751 -66.655731
24.995209 49.914429 -28.612997
23.827061 53.999435 -30.654503
31.605858 54.649193 -44.065338
32.419991 50.468445 -41.998661
16.957218 46.308823 -16.728792
17.960592 49.487358 -21.043837
40.834232 39.32711 -68.952286
41.817558 43.534706 -71.864685
36.556656 12.208052 -97.14183
35.251572 1.89404 -102.723854
-22.80653 46.217003 -30.263897
-17.893545 47.74617 -33.274849
-24.250601 49.168709 -44.615242
-29.13479 47.680508 -41.537361
-14.536436 42.489235 -18.170799
-14.60429 43.997665 -23.471905
-37.450359 34.485657 -67.550682
-32.608677 35.958729 -70.700974
-32.232029 12.355307 -94.109421
